  0.65998964E+01 -0.96180737E-01 -0.18148595E-01  0.64034283E-01
 -0.14069435E-01 -0.11540678E-01  0.66070855E-02  0.26406836E-01
 -0.39686033E-03  0.23210552E-01 -0.22450823E-02 -0.10104239E-01
 -0.12631580E-01 -0.42413343E-01  0.80642939E-01  0.27393836E+00
 -0.16345827E+00 -0.16899700E+00 -0.32240999E+00  0.70448697E-01
 -0.77763975E-01 -0.13244357E-01  0.30214986E-01 -0.13424671E+00
 -0.17871726E-01  0.15353709E-01  0.17452026E+02  0.14823141E+01
 -0.10489836E+01 -0.31613785E+00  0.14407471E+01 -0.17907828E+00
  0.29510629E+00 -0.22444354E-01  0.21991578E+00 -0.10238972E+01
  0.21552382E+00  0.43258828E+00  0.30413872E-01 -0.42824154E+01
 -0.43370705E+01  0.27843063E+01  0.32597790E+01  0.52011843E+01
  0.38541880E+01 -0.19715508E+01  0.21992905E+01  0.23029690E+01
 -0.60228556E+00  0.22066259E+01  0.23972336E-01 -0.80908841E+00
 -0.11069538E+03 -0.47234507E+01  0.81807337E+01 -0.57918816E+01
 -0.15985529E+02  0.41825180E+01  0.31950969E+00 -0.15979003E+01
 -0.29805326E+00  0.65984235E+01 -0.15701970E+01 -0.28786163E+01
 -0.55098760E+00  0.53160343E+01  0.72372942E+01 -0.31718048E+02
 -0.84363060E+01 -0.20782211E+02 -0.15876793E+02  0.10275279E+02
 -0.12953022E+02 -0.18293261E+02  0.30118990E+01 -0.10225960E+02
  0.10002424E+01  0.57159648E+01  0.22316840E+03  0.88046808E+01
 -0.19268265E+02  0.27535292E+02  0.49745651E+02 -0.14210364E+02
 -0.63509388E+01  0.59100389E+01 -0.75693417E+00 -0.15410736E+02
  0.43323641E+01  0.69434185E+01  0.26285543E+01  0.29579544E+02
  0.18237549E+02  0.82377548E+02  0.84427810E+00  0.30343168E+02
  0.29563704E+02 -0.19898544E+02  0.30717590E+02  0.48212418E+02
 -0.59438214E+01  0.19914412E+02 -0.42029829E+01 -0.14977189E+02
 -0.20669724E+03 -0.11006776E+02  0.17986938E+02 -0.39454208E+02
 -0.59185928E+02  0.16635513E+02  0.11510051E+02 -0.69961233E+01
  0.14310035E+01  0.15335246E+02 -0.50885744E+01 -0.70506630E+01
 -0.39190333E+01 -0.65092926E+02 -0.45056271E+02 -0.80958832E+02
  0.13474419E+02 -0.17513613E+02 -0.25489258E+02  0.16221634E+02
 -0.31921722E+02 -0.51784847E+02  0.50485597E+01 -0.17261200E+02
  0.55830841E+01  0.16545364E+02  0.74110519E+02  0.55856390E+01
 -0.58897910E+01  0.18034470E+02  0.23959211E+02 -0.63647890E+01
 -0.57852678E+01  0.26369388E+01 -0.59193826E+00 -0.55258875E+01
  0.21282358E+01  0.25619020E+01  0.18311788E+01  0.34186600E+02
  0.23974504E+02  0.27236193E+02 -0.89847784E+01  0.29195013E+01
  0.82554817E+01 -0.46716986E+01  0.12058103E+02  0.19580338E+02
 -0.15368041E+01  0.54791770E+01 -0.23879938E+01 -0.65005140E+01
 -0.24007400E-01  0.21675978E+01  0.11725760E+01  0.50758086E-01
  0.13093474E-01 -0.23201449E-01  0.38342893E-01  0.48389513E-01
  0.63410662E-02  0.44442557E-01  0.19522280E-01 -0.27899284E-01
 -0.14491891E-02 -0.34519996E-01 -0.11496038E+01  0.21471727E+01
 -0.14192484E+00  0.68746626E-01 -0.33114925E-01 -0.61117642E-01
  0.42638429E-01  0.90309940E-02 -0.28206117E-01 -0.93916431E-02
 -0.10890186E-01  0.86654350E-02 -0.62337194E-01  0.79887128E+00
  0.91313583E+00 -0.18493378E+00  0.26627880E+00  0.28355408E+00
  0.51949298E+00  0.11120750E+00  0.27354652E+00 -0.12354255E+00
 -0.27485762E-01 -0.33132059E-02  0.10892821E+00 -0.26281744E+00
  0.44478521E+00  0.60648137E+00 -0.41248816E+00  0.25587833E+00
 -0.95881879E-01 -0.33539433E-01  0.57145733E+00  0.13682044E+00
 -0.25388563E+00 -0.10539192E+00  0.25895590E+00 -0.85921526E-01
  0.27832451E+01  0.16864960E+02  0.40619507E+01 -0.20387974E+01
  0.93537438E+00  0.16030453E+01  0.35865557E+00 -0.70939958E+00
  0.63179672E+00 -0.16262045E+01  0.22060847E+00  0.10916176E+01
 -0.26890576E+00 -0.38157616E+01 -0.31960354E+01  0.17024628E+02
  0.35198448E+01  0.14320096E+01 -0.42652923E+00  0.44432792E+00
 -0.12067032E+00 -0.51051909E+00  0.10688667E+01  0.34004807E+00
  0.25413656E+00 -0.20112851E+00  0.69541912E+01 -0.18067734E+02
  0.91149321E+01  0.38701576E+00  0.36137352E+01 -0.53189087E+01
 -0.11495462E+02 -0.10826283E+01 -0.27792189E+01  0.27802818E+01
  0.12037230E+01 -0.14036683E+01 -0.12014112E+01  0.12424924E+02
 -0.22949509E+02 -0.12072405E+02  0.37552617E+01 -0.35413675E+01
  0.57876978E+01  0.79935122E+00 -0.93507404E+01 -0.10703613E+01
  0.37773590E+01  0.11066065E+01 -0.40062103E+01 -0.51845574E+00
 -0.17640093E+02 -0.10663565E+03  0.76676781E+02  0.15154501E+02
 -0.11779244E+02 -0.14249014E+02 -0.23536949E+01  0.50884314E+01
 -0.77559648E+01  0.10476252E+02 -0.28326015E+01 -0.80197411E+01
  0.17742893E+01  0.41513287E+02 -0.97553864E+02 -0.95567101E+02
 -0.19530245E+02 -0.16382980E+02  0.50004244E+01  0.46859521E+00
  0.59307051E+00  0.33864224E+01 -0.85503206E+01 -0.49351854E+01
 -0.36469865E+00  0.17972651E+01 -0.50485668E+02  0.11387515E+03
 -0.35196548E+02  0.13647219E+02 -0.18866573E+02  0.35348221E+02
  0.61966625E+02  0.28466082E+01  0.12943145E+02 -0.17173037E+02
 -0.69480548E+01  0.11160711E+02  0.54356537E+01 -0.10127907E+03
  0.11782327E+03  0.68567123E+02 -0.27491041E+02  0.10630719E+02
 -0.37230164E+02 -0.21067331E+01  0.51232285E+02  0.83989620E+01
 -0.19422346E+02 -0.21974297E+01  0.19062988E+02  0.78485546E+01
  0.37536377E+02  0.21429556E+03 -0.35160007E+03 -0.42891769E+02
  0.40961731E+02  0.44047211E+02  0.81962329E+00 -0.13827250E+02
  0.28208023E+02 -0.26970642E+02  0.91622019E+01  0.21888948E+02
 -0.39068768E+01 -0.13467381E+03  0.43239697E+03  0.16293761E+03
  0.55668140E+02  0.53183453E+02 -0.12969425E+02 -0.54627333E+01
 -0.22841864E+01 -0.78471823E+01  0.25674971E+02  0.17792437E+02
 -0.14446115E+01 -0.57079682E+01  0.15792363E+03 -0.30741357E+03
  0.12066244E+02 -0.73300522E+02  0.21158735E+02 -0.10123547E+03
 -0.13733228E+03  0.33357602E-01 -0.29374786E+02  0.42309250E+02
  0.14585931E+02 -0.30827667E+02 -0.13427902E+02  0.27333496E+03
 -0.24579082E+03 -0.17028870E+03  0.87392258E+02 -0.19682510E+02
  0.87100418E+02  0.28480637E+01 -0.12049127E+03 -0.31395861E+02
  0.46579376E+02 -0.16486950E+01 -0.39088516E+02 -0.23570740E+02
 -0.31926086E+02 -0.18912199E+03  0.49377737E+03  0.51254742E+02
 -0.55447201E+02 -0.56824295E+02  0.64984665E+01  0.14788384E+02
 -0.39874294E+02  0.31675291E+02 -0.11539884E+02 -0.25417494E+02
  0.36541967E+01  0.17872554E+03 -0.60567114E+03 -0.10871115E+03
 -0.77059845E+02 -0.71071350E+02  0.11870969E+02  0.10181161E+02
  0.38203001E+01  0.61157160E+01 -0.31524569E+02 -0.23383057E+02
  0.37743139E+01  0.61833124E+01 -0.22133594E+03  0.37228467E+03
  0.54766739E+02  0.12162727E+03  0.21483109E+01  0.12726327E+03
  0.13672382E+03 -0.70452433E+01  0.30163025E+02 -0.44665482E+02
 -0.12745264E+02  0.35419662E+02  0.16225983E+02 -0.29494238E+03
  0.23506216E+03  0.19200449E+03 -0.10832541E+03  0.29829514E+02
 -0.84662720E+02 -0.59570789E+01  0.12735706E+03  0.48301056E+02
 -0.52132954E+02  0.77952442E+01  0.36343369E+02  0.26745316E+02
  0.91377707E+01  0.66141739E+02 -0.22206754E+03 -0.21895308E+02
  0.25961348E+02  0.26107529E+02 -0.57225595E+01 -0.50952444E+01
  0.19250319E+02 -0.14170376E+02  0.50944929E+01  0.10638087E+02
 -0.13205595E+01 -0.84391205E+02  0.27314233E+03  0.24791868E+02
  0.38730946E+02  0.33692505E+02 -0.33924561E+01 -0.61104660E+01
 -0.23151674E+01 -0.92081571E+00  0.13415735E+02  0.10256060E+02
 -0.23337307E+01 -0.19138917E+01  0.11088846E+03 -0.16574036E+03
 -0.44082214E+02 -0.64954498E+02 -0.86842937E+01 -0.57481567E+02
 -0.51243748E+02  0.55801935E+01 -0.11060499E+02  0.16775253E+02
  0.39023745E+01 -0.14520376E+02 -0.73669634E+01  0.11177200E+03
 -0.84463303E+02 -0.81101242E+02  0.44699478E+02 -0.19768433E+02
  0.28911028E+02  0.49595222E+01 -0.49829727E+02 -0.25354980E+02
  0.21757780E+02 -0.52241926E+01 -0.12592972E+02 -0.10411532E+02
  0.30574525E-01 -0.31148717E-01 -0.33901516E-01 -0.87049472E+00
  0.20368209E+00 -0.32607842E-01 -0.16634516E-01  0.27669176E-01
  0.36947880E-01  0.47631599E-02  0.34091133E-02 -0.23116292E-01
  0.21287637E-01  0.58895040E-01  0.15586517E-01  0.69088884E-01
 -0.21127129E+00 -0.80712032E+00 -0.14075823E-01 -0.17555032E-01
 -0.16835840E-01  0.10679643E-01 -0.12162153E-01 -0.73469686E-02
 -0.37808849E-02  0.10991143E-02  0.62006795E+00  0.13560390E+00
  0.16468418E+00  0.99273920E-01 -0.26552624E+00  0.37287199E+00
 -0.35812032E+00 -0.19624997E-01  0.44019241E-01 -0.16461615E+00
  0.20510986E-01 -0.11776924E+00  0.38004398E-01  0.10694619E+01
  0.31023818E+00  0.14203928E+00 -0.43358117E-01  0.10166669E+00
  0.41650143E+00  0.48760930E+00 -0.12005377E+00  0.97967386E-01
 -0.15563516E+00 -0.22586858E+00  0.49013637E-01 -0.20813970E-01
  0.18206575E+01 -0.41084614E+00  0.27921238E+01  0.24209125E+01
  0.16685303E+01 -0.28808552E+00 -0.90014279E+00 -0.50827682E+00
 -0.45300132E+00 -0.35001542E-01  0.36338080E-01  0.24220031E+00
 -0.31733364E+00  0.43253842E+00 -0.63174385E+00  0.50231868E+00
 -0.17871256E+01  0.42565956E+01 -0.41577768E+00 -0.12443371E-01
  0.90635937E+00 -0.81871711E-02  0.12240941E+00 -0.58664852E+00
  0.16192608E-01 -0.34534615E-01 -0.39647152E+01  0.33445108E+00
 -0.17875118E+01  0.35496013E+01  0.51491532E+01 -0.33950500E+01
  0.13043871E+01  0.25871402E+00  0.68523347E-01  0.13834658E+01
  0.79948354E+00  0.91803938E+00 -0.45803875E-01 -0.64467535E+01
 -0.20690763E+01  0.49838591E+00 -0.82725662E+00  0.50504017E+01
 -0.24308872E+01 -0.33799701E+01  0.58349323E+00 -0.12550087E+01
  0.10462332E+01  0.23345356E+01 -0.70762026E+00  0.51471239E+00
 -0.15008720E+02  0.14641235E+02 -0.20451660E+02  0.19731979E+02
  0.55634995E+01  0.25407569E+01  0.62443285E+01  0.28349655E+01
  0.24219618E+01 -0.96738267E+00 -0.41830260E+00 -0.83132803E-01
  0.83228946E+00 -0.45921926E+01  0.10040653E+02 -0.35055697E+01
 -0.40767612E+01  0.60929508E+01  0.75083411E+00  0.31848952E-01
 -0.46174974E+01 -0.34868580E+00  0.49051601E+00  0.39066937E+01
  0.55248684E+00 -0.44293055E+00  0.63590775E+01 -0.54019079E+01
  0.35216532E+01 -0.11525576E+02 -0.16511581E+02  0.75384364E+01
 -0.19127111E+01 -0.46861178E+00 -0.16359043E+01 -0.28776960E+01
 -0.27371662E+01 -0.23561430E+01 -0.15143436E+00  0.10229012E+02
  0.11192627E+01 -0.24896040E+01  0.21574695E+01 -0.16082792E+02
  0.50335703E+01  0.60995483E+01  0.46528444E-01  0.44228535E+01
 -0.24760294E+01 -0.58701072E+01  0.17978441E+01 -0.14681014E+01
  0.34721951E+02 -0.42912167E+02  0.43504807E+02 -0.63420731E+02
 -0.24599470E+02 -0.63787670E+01 -0.11826031E+02 -0.60871477E+01
 -0.45813751E+01  0.32331924E+01  0.11356508E+01 -0.13086147E+01
 -0.20494528E+00  0.13705240E+02 -0.26223618E+02  0.63174248E+01
  0.21032364E+02 -0.33421906E+02  0.69371122E+00  0.33373719E+00
  0.82973967E+01  0.57793893E-02 -0.35463054E+01 -0.80484915E+01
 -0.15746632E+01  0.11740103E+01 -0.34624617E+01  0.80138206E+01
 -0.30727043E+01  0.99697714E+01  0.14296802E+02 -0.47378616E+01
  0.91392750E+00  0.25849402E+00  0.23256731E+01  0.17453269E+01
  0.22083223E+01  0.17524529E+01  0.13290423E+00 -0.44886570E+01
  0.27600317E+01  0.26766872E+01 -0.16193962E+01  0.12873305E+02
 -0.35492830E+01 -0.32382326E+01 -0.82338870E+00 -0.40521240E+01
  0.16536398E+01  0.42015963E+01 -0.11780930E+01  0.11460972E+01
 -0.24425173E+02  0.32594193E+02 -0.26974182E+02  0.44860214E+02
  0.18794022E+02  0.41103077E+01  0.71137910E+01  0.43121300E+01
  0.26971643E+01 -0.24290111E+01 -0.88320673E+00  0.13616093E+01
 -0.47190928E+00 -0.12868724E+02  0.17487791E+02 -0.35085895E+01
 -0.16604246E+02  0.24305555E+02 -0.93955791E+00 -0.42676288E+00
 -0.49368086E+01  0.68438691E+00  0.36197155E+01  0.52519341E+01
  0.11007042E+01 -0.74931693E+00 -0.15135264E+00 -0.28601021E-02
 -0.89310586E-01 -0.33103663E-01  0.79293370E-01 -0.50901484E+00
 -0.82532126E+00  0.27812917E-01  0.20369738E-01  0.24551893E-01
  0.18150743E-01 -0.15981855E-01  0.17871842E-01  0.47308989E-02
 -0.10820432E+00  0.30828550E-01  0.20033805E-01  0.29000899E-01
  0.75493073E+00 -0.47701424E+00  0.32587878E-02  0.46372227E-01
 -0.10304346E-01 -0.20734092E-01  0.25965126E-01 -0.58355224E-02
 -0.30175501E-01  0.29149771E+00 -0.15922236E+00 -0.23880070E+00
 -0.31934559E+00 -0.21410790E+00 -0.14080048E+00 -0.13714212E+00
  0.11907786E+00  0.39285962E-01  0.14231239E+00  0.47506593E-01
 -0.21241788E-01 -0.11470717E+00  0.12420136E+00 -0.40786356E-01
 -0.17982394E+00  0.13026784E+00  0.35654247E+00 -0.31161553E+00
 -0.22107504E+00  0.22054937E-01 -0.22563413E-01 -0.27322272E-01
  0.78594647E-02  0.29850727E-01  0.91586936E+00  0.45026916E+00
  0.85786003E+00  0.57185078E+00 -0.34676489E+00  0.13745327E+01
  0.23583157E+01 -0.16617000E+00 -0.55329833E-01 -0.98012567E-01
 -0.80390751E-01  0.74126601E-01 -0.24377273E-01 -0.41545361E+00
  0.12106429E+01 -0.93434161E+00  0.17056143E+00 -0.64522797E+00
 -0.23836489E+01  0.16357203E+01 -0.10281749E+00 -0.50418890E+00
  0.29982608E-01 -0.91422498E-01 -0.29078585E+00  0.26920128E-02
 -0.32012028E+00 -0.33131802E+00  0.44400710E+00  0.35786447E+00
  0.46332926E+00  0.39637893E+00  0.22233672E+00  0.42943183E+00
 -0.11153209E+00 -0.72281182E-01 -0.15658081E+00 -0.14401633E+00
  0.95212579E-01  0.34326744E+00 -0.40543489E-01  0.20303135E+00
 -0.67969382E-01 -0.69856882E-01 -0.80425560E+00  0.52323300E+00
  0.22219920E+00  0.59583046E-01  0.29945871E-01  0.43922313E-01
 -0.15566495E-01 -0.91002509E-02 -0.44131526E+00 -0.30327225E+00
 -0.92330807E+00 -0.77402669E+00  0.13792759E+00 -0.20475719E+01
 -0.27376490E+01  0.10802830E+00 -0.65257788E-01  0.78867793E-01
  0.10399986E+00  0.14911513E-01 -0.53068720E-01  0.66848314E+00
 -0.16395501E+01  0.17826375E+01 -0.61707687E-01  0.10942956E+01
  0.34093120E+01 -0.27390242E+01  0.11946614E+00  0.77287662E+00
  0.62772572E-01  0.15083092E+00  0.45553598E+00 -0.37019581E-01
  0.21583671E-01  0.64543169E-03 -0.51576737E-03  0.58179986E-01
  0.27645396E-01  0.17042678E-01  0.23695774E-01  0.30250359E+00
 -0.15979145E+00  0.11132519E-01  0.16834153E-01 -0.14365312E-01
 -0.20031256E-02  0.37123352E-01  0.31039353E-01 -0.32179166E-01
  0.90723857E-02 -0.57725225E-01  0.15170094E-01  0.13725638E-01
  0.11982990E+00  0.30412436E+00  0.16133189E-01  0.21785470E-02
  0.67538656E-02 -0.11140664E-01 -0.14433792E-02  0.11381990E+00
 -0.10765873E+00 -0.10239578E+00 -0.81107616E-01 -0.61356388E-01
  0.38089097E-01  0.56286901E-01  0.27529797E-01 -0.90354145E-01
  0.81266291E-01  0.29821135E-03  0.13847735E-01  0.18724556E+00
  0.95570683E-02 -0.21760222E-01  0.13237506E+00  0.12431902E+00
 -0.66988230E-01 -0.10429621E+00 -0.10871854E-01 -0.82563143E-03
 -0.46499766E-01 -0.35336360E-01  0.74498015E-02 -0.50428431E-02
 -0.87155998E-01  0.10371951E-01 -0.10520716E+00  0.13535340E-01
 -0.12469282E-01  0.89040734E-02  0.31624246E-01  0.37560670E-02
 -0.11854895E-01  0.15747432E+00  0.22601800E+00 -0.16246822E-01
 -0.11745606E-01  0.61789233E-01  0.55235766E-01 -0.75306930E-02
 -0.16015358E-01 -0.22144975E-01  0.42483758E-01 -0.94584078E-02
 -0.29955332E-04 -0.20362385E-01 -0.22954024E+00  0.14123082E+00
  0.11846970E-01 -0.48866947E-02  0.41830935E-01 -0.25836840E-01
  0.33995997E-01 -0.30328433E-02 -0.43513551E-02  0.32394242E-01
  0.24555245E-01  0.15828688E-01 -0.14602710E-01  0.79171918E-02
 -0.24579484E-02 -0.12720142E+00  0.61430715E-01  0.11831303E-01
  0.48629563E-01 -0.36074687E-01  0.10915473E-01  0.65989308E-02
  0.81955455E-02 -0.26336169E-01 -0.81899911E-02 -0.11951328E-01
 -0.18219598E-01 -0.14673568E-01 -0.55252790E-01 -0.12856483E+00
 -0.18628046E-01 -0.58445823E-02 -0.82438052E-01  0.24269115E-01
  0.24777472E-01 -0.10445635E-01 -0.56395717E-02  0.88527240E-02
 -0.72764158E-02  0.19107532E-03 -0.24804154E-01  0.88188238E-02
  0.33777922E-02  0.22041785E-01  0.75239122E-01  0.32701150E-01
 -0.36235764E-02  0.28052097E-01  0.17236879E-01  0.44026834E-03
 -0.37383430E-01  0.11369156E-02  0.21209640E-02  0.54265261E-02
  0.13008385E-02  0.85698180E-02  0.10458429E-01 -0.10118044E-02
 -0.77243917E-01  0.30200144E-04  0.16539749E-01 -0.37585136E-02
  0.45206279E-01 -0.19975778E-01  0.64657144E-02  0.45526288E-02
 -0.13365079E-01  0.17035088E-01  0.60681738E-02 -0.31197893E-01
  0.27110072E-01 -0.81724226E-02  0.53124391E-01 -0.37347761E-03
 -0.60616839E-02  0.15380550E-01  0.24982354E-01  0.43096021E-02
 -0.35201445E-01 -0.23587817E-01 -0.47319382E-02  0.29201475E-02
  0.93594637E+01  0.11758082E-01  0.84277689E-01  0.73569536E-01
  0.11903163E-01 -0.44155391E-02 -0.15138904E-01  0.74017155E-02
 -0.15588633E-01  0.36506955E-01 -0.14251898E-02 -0.65558036E-02
 -0.18775852E-02  0.88674414E+00  0.51994503E-01  0.62100887E-02
 -0.30662936E+00 -0.13489079E+00 -0.16742069E+00 -0.27921742E+00
 -0.73416770E-01 -0.51260430E-01  0.34743931E-01 -0.64074218E-01
 -0.14990612E-01 -0.33514559E-01  0.29466921E+02 -0.10430384E+01
 -0.17538365E+01  0.64629501E+00  0.15527000E+01 -0.81919438E+00
  0.24933694E+00  0.21972422E+00  0.14215916E+00 -0.14595737E+01
  0.24961293E+00  0.30417073E+00 -0.55456985E-01 -0.67446027E+01
  0.40613860E+00  0.46058159E+01  0.29142275E+01  0.43435965E+01
  0.19936314E+01  0.27405975E+01  0.19893138E+01  0.26587334E+01
 -0.36289036E+00  0.87958097E+00  0.43432504E+00  0.45760855E+00
 -0.14369508E+03  0.82375011E+01  0.86440678E+01 -0.11147150E+02
 -0.15416178E+02  0.78732023E+01  0.98172742E+00 -0.10455227E+01
  0.79332030E+00  0.88577414E+01 -0.20928278E+01 -0.17485448E+01
 -0.37013817E+00 -0.38804271E+01 -0.24045441E+02 -0.22236849E+02
 -0.39119642E+01 -0.14422158E+02 -0.11314327E+02 -0.11605090E+02
 -0.11023641E+02 -0.19990582E+02  0.18404474E+01 -0.36433990E+01
 -0.19584159E+01 -0.16701307E+01  0.24726463E+03 -0.13912272E+02
 -0.16638885E+02  0.39193115E+02  0.45437637E+02 -0.20975449E+02
 -0.71870813E+01  0.10358953E+01 -0.41288271E+01 -0.20344755E+02
  0.61743193E+01  0.37249968E+01  0.23654852E+01  0.73438400E+02
  0.85878952E+02  0.28821285E+02 -0.12087472E+02  0.15061756E+02
  0.27009081E+02  0.25284409E+02  0.25017273E+02  0.52237438E+02
 -0.39412920E+01  0.60525675E+01  0.32629385E+01  0.20258255E+01
 -0.20673763E+03  0.37566128E+01  0.14237962E+02 -0.50470261E+02
 -0.52279781E+02  0.21282148E+02  0.11163843E+02  0.52002543E+00
  0.55029087E+01  0.20240616E+02 -0.74278593E+01 -0.33429353E+01
 -0.35941296E+01 -0.11962259E+03 -0.10679832E+03 -0.54719858E+01
  0.29441711E+02 -0.20143700E+01 -0.27501463E+02 -0.26564102E+02
 -0.25437057E+02 -0.56287430E+02  0.34835873E+01 -0.41210537E+01
 -0.22583301E+01 -0.41311580E+00  0.69616791E+02  0.29591660E+01
 -0.46051245E+01  0.21710464E+02  0.20603971E+02 -0.72812705E+01
 -0.51570253E+01 -0.75040770E+00 -0.23034897E+01 -0.73399339E+01
  0.31145620E+01  0.10590287E+01  0.16675491E+01  0.55920959E+02
  0.44685558E+02 -0.57169743E+01 -0.16177475E+02 -0.28279171E+01
  0.99622288E+01  0.10504270E+02  0.95728416E+01  0.21457169E+02
 -0.10309287E+01  0.88172019E+00  0.53643727E+00 -0.38652465E+00
 -0.91051519E-01  0.16604548E+01  0.15699625E+01  0.76715767E-01
  0.43537371E-01 -0.13598571E-01  0.49196348E-01  0.54983902E-02
 -0.43234859E-01  0.35610508E-01  0.33476464E-01 -0.23877522E-01
 -0.35067953E-03  0.12912869E+00 -0.15785017E+01  0.15362043E+01
 -0.14700162E+00  0.59193391E-01 -0.35832047E-01 -0.21853300E-01
  0.66302009E-02  0.16508464E-01  0.10124203E-01  0.11756689E-01
 -0.16161021E-01 -0.59979521E-02 -0.84079021E+00  0.12545851E+01
 -0.53319615E+00 -0.38466424E+00  0.71295905E+00  0.44927460E+00
  0.46575683E+00  0.96385419E-01  0.24827370E+00 -0.49310956E-01
 -0.60446393E-01 -0.82794249E-01  0.53030346E-01  0.93256640E+00
 -0.20340858E+00  0.24310620E+00 -0.10172791E+00  0.75127989E+00
  0.97861581E-01  0.30854338E+00  0.39208812E+00  0.25966078E-01
 -0.73293746E-01 -0.10588093E+00  0.91211319E-01 -0.16803260E+00
  0.31397121E+01  0.17180099E+02 -0.13800440E+02  0.70740998E-01
  0.46341306E+00  0.14315277E+00 -0.44296425E-01  0.59252042E+00
  0.15348605E+01 -0.11630144E+01 -0.22830708E+00  0.94050133E+00
 -0.27207708E+00 -0.83226337E+01  0.16027708E+02  0.18227188E+02
  0.24127636E+01  0.16124907E+01  0.64143932E+00 -0.48962837E+00
  0.14949484E+01 -0.68322611E+00 -0.83393395E+00 -0.21246541E+00
  0.36369675E+00  0.15471222E-01  0.25553757E+02 -0.20131187E+01
  0.26365784E+02 -0.37747600E+01 -0.64699764E+01 -0.78558402E+01
 -0.10889876E+02 -0.23848505E+00 -0.30194919E+01  0.15077209E+01
  0.17867328E+01  0.61363947E+00 -0.83897746E+00 -0.97228460E+01
 -0.83611345E+01  0.63290434E+01  0.16351891E+01 -0.20032822E+02
  0.44843369E+01 -0.30204687E+01 -0.67688689E+01  0.79144502E+00
  0.25467318E+00  0.99470073E+00 -0.17565976E+01  0.14626292E+01
 -0.19355896E+02 -0.47454224E+02  0.12098094E+03 -0.89022665E+01
 -0.42745752E+01 -0.45515871E+01  0.30617991E-01 -0.31281147E+01
 -0.12787306E+02  0.67629743E+01  0.81136113E+00 -0.72240005E+01
  0.21611481E+01  0.77719879E+02 -0.15284087E+03 -0.28094070E+02
 -0.12935535E+02 -0.18593325E+02 -0.32531595E+01  0.55940328E+01
 -0.11318360E+02  0.32409828E+01  0.75526605E+01  0.48537755E+00
 -0.15223312E+01  0.88688982E+00 -0.16509647E+03 -0.13600341E+02
 -0.14347475E+03  0.67285431E+02  0.29329422E+02  0.45942947E+02
  0.55822556E+02 -0.64459357E+01  0.13185073E+02 -0.11480048E+02
 -0.14453206E+02 -0.30418861E+00  0.47256918E+01  0.55850414E+02
  0.47293289E+02 -0.38787140E+02 -0.14584156E+02  0.12430083E+03
 -0.31622999E+02  0.13420869E+02  0.35762142E+02 -0.36125880E+00
 -0.15479679E+01 -0.12744303E+01  0.86030378E+01 -0.44953403E+01
  0.38700027E+02 -0.28222197E+02 -0.30419238E+03  0.39386948E+02
  0.15715429E+02  0.20906570E+02 -0.27541666E+01  0.65622759E+01
  0.40180481E+02 -0.16013824E+02 -0.15492725E+01  0.20418943E+02
 -0.60262117E+01 -0.24083034E+03  0.41435205E+03 -0.13463225E+03
  0.38008820E+02  0.62823849E+02  0.78923759E+01 -0.17364426E+02
  0.29752790E+02 -0.36583557E+01 -0.22033188E+02 -0.86091959E+00
  0.23167665E+01 -0.40712490E+01  0.43789868E+03  0.37758240E+02
  0.30222437E+03 -0.25211703E+03 -0.68283478E+02 -0.12247943E+03
 -0.11544856E+03  0.29691114E+02 -0.26862549E+02  0.32532578E+02
  0.40526031E+02 -0.55368466E+01 -0.12097772E+02 -0.16987952E+03
 -0.98175888E+02  0.93504868E+02  0.44424988E+02 -0.31534619E+03
  0.75678291E+02 -0.27929535E+02 -0.75439178E+02 -0.14984092E+02
  0.86548948E+01 -0.38562279E+01 -0.19092194E+02  0.82323360E+01
 -0.28264296E+02  0.16086137E+03  0.33062646E+03 -0.60156815E+02
 -0.25561417E+02 -0.33909607E+02  0.69856234E+01 -0.67728310E+01
 -0.52560555E+02  0.17889969E+02  0.16138610E+01 -0.24223925E+02
  0.70134721E+01  0.30368723E+03 -0.46959616E+03  0.33666504E+03
 -0.55255215E+02 -0.86959839E+02 -0.90647650E+01  0.22722626E+02
 -0.31628494E+02 -0.20313890E+01  0.26141890E+02  0.15387295E+01
 -0.10764122E+01  0.55649920E+01 -0.51269458E+03 -0.24774506E+02
 -0.26924045E+03  0.35456689E+03  0.72959488E+02  0.14845412E+03
  0.10644101E+03 -0.44661758E+02  0.25646072E+02 -0.38323624E+02
 -0.45829041E+02  0.11802900E+02  0.13949015E+02  0.23760628E+03
  0.85215302E+02 -0.10850819E+03 -0.47027058E+02  0.35732687E+03
 -0.74357651E+02  0.24879044E+02  0.67221268E+02  0.34626282E+02
 -0.15760850E+02  0.95299788E+01  0.20570358E+02 -0.99656219E+01
  0.57932053E+01 -0.10340133E+03 -0.13253651E+03  0.30239807E+02
  0.14212955E+02  0.18223083E+02 -0.44180136E+01  0.29476211E+01
  0.24200895E+02 -0.79207330E+01 -0.70972711E+00  0.10236231E+02
 -0.29160755E+01 -0.13413786E+03  0.19037308E+03 -0.19506718E+03
  0.28727465E+02  0.42836151E+02  0.36783915E+01 -0.11200488E+02
  0.11366664E+02  0.33454435E+01 -0.10977008E+02 -0.10146284E+01
 -0.15341073E+00 -0.23435020E+01  0.21834229E+03 -0.54074174E+00
  0.81919067E+02 -0.17072714E+03 -0.27865326E+02 -0.65729050E+02
 -0.36894897E+02  0.22338470E+02 -0.91411533E+01  0.15863236E+02
  0.18038864E+02 -0.67405639E+01 -0.59032984E+01 -0.11627515E+03
 -0.24264629E+02  0.48176727E+02  0.13980582E+02 -0.15089851E+03
  0.25507414E+02 -0.73551226E+01 -0.20702438E+02 -0.20904860E+02
  0.87487831E+01 -0.55933890E+01 -0.86189528E+01  0.53419051E+01
  0.78886330E-01 -0.29637569E+00 -0.60464900E-01 -0.71206862E+00
  0.59372735E+00 -0.20558242E-01  0.48958015E-01  0.17571803E-01
  0.42676930E-02 -0.61578047E-02  0.21608405E-01  0.51746960E-03
 -0.57962169E-02 -0.11099775E-01 -0.77226818E-01 -0.35840608E-01
 -0.68324238E+00 -0.71531457E+00 -0.41512378E-01 -0.81707276E-02
 -0.76341666E-02  0.20536050E-01  0.75761302E-04  0.10275764E-01
 -0.93738479E-03  0.10511256E-02  0.13842400E+01 -0.49234234E-01
  0.12677438E-01 -0.10571032E+01  0.10398120E+00  0.59301776E+00
 -0.14417672E+00 -0.12642121E+00 -0.50918173E-01 -0.13518077E+00
  0.30521564E-01 -0.12413521E+00 -0.55086076E-01  0.13468283E+01
  0.45321479E+00  0.33050817E-01 -0.19486004E+00 -0.84212869E+00
  0.33315790E+00  0.56156081E+00 -0.21251965E+00  0.18369168E+00
 -0.45716692E-01 -0.15525162E+00 -0.21887373E-02 -0.13814416E-01
  0.13547544E+01  0.35052299E+01  0.39791515E+01 -0.39452152E+01
  0.91488066E+01 -0.59917301E+00 -0.23404016E+01  0.19902436E+00
  0.28914595E+00  0.32449687E+00 -0.30973130E+00 -0.13093150E+00
  0.24543996E+00  0.93270177E+00  0.10100641E+01  0.21535051E+01
 -0.79689913E+01 -0.27236197E+01  0.71202475E+00 -0.46545172E+00
  0.11434031E+01 -0.18245190E+00 -0.40821990E+00 -0.56782430E+00
 -0.14069527E-01 -0.91296136E-01 -0.10542485E+02  0.11633003E+00
 -0.27338638E+01  0.60308561E+01  0.38688376E+01 -0.47813063E+01
 -0.80322623E-01  0.11000690E+01  0.13760308E+01  0.10471878E+01
 -0.10195703E+00  0.84878850E+00  0.67848611E+00 -0.11052454E+02
 -0.35547702E+01 -0.17437516E+01 -0.14164075E+01  0.29000559E+01
 -0.17477272E+00 -0.31872110E+01  0.15479764E+01 -0.11199074E+01
  0.35770196E-01  0.15186518E+01 -0.51870155E+00  0.42309418E+00
 -0.12578058E+02 -0.68359618E+01 -0.30894136E+02  0.29231522E+02
 -0.37497787E+02  0.42103472E+01  0.13634277E+02 -0.23105450E+01
 -0.25411384E+01 -0.20200243E+01  0.17991819E+01  0.12031136E+01
 -0.22861774E+01 -0.45937929E+01  0.20954573E+01 -0.12322833E+02
  0.30053970E+02  0.19175720E+02 -0.63447342E+01  0.20542047E+01
 -0.71390734E+01 -0.82132202E+00  0.34279487E+01  0.34167354E+01
  0.95250791E+00 -0.24310122E+00  0.24285004E+02 -0.33831911E+01
  0.87184391E+01 -0.14099851E+02 -0.16883636E+02  0.11646293E+02
  0.59411901E+00 -0.24929810E+01 -0.56281357E+01 -0.20639105E+01
  0.36040887E+00 -0.18116416E+01 -0.17643518E+01  0.24702208E+02
  0.38919735E+01  0.61029816E+01  0.65146122E+01 -0.22756844E+01
 -0.12218447E+01  0.49939818E+01 -0.24445648E+01  0.28680897E+01
 -0.10368447E+00 -0.39225388E+01  0.16193438E+01 -0.12233028E+01
  0.28191435E+02  0.78694779E+00  0.64988586E+02 -0.59622391E+02
  0.50546677E+02 -0.93377047E+01 -0.25691008E+02  0.49692049E+01
  0.66733646E+01  0.38342440E+01 -0.33193254E+01 -0.28077450E+01
  0.59086132E+01  0.68308530E+01 -0.11145399E+02  0.20142715E+02
 -0.35770203E+02 -0.34637833E+02  0.14650714E+02 -0.28380070E+01
  0.14030186E+02  0.30224793E+01 -0.93840456E+01 -0.67304082E+01
 -0.30187073E+01  0.13366690E+01 -0.19719055E+02  0.68867254E+01
 -0.97942543E+01  0.12571601E+02  0.16866743E+02 -0.80991716E+01
 -0.60612911E+00  0.14781256E+01  0.55502701E+01  0.12907429E+01
 -0.25038749E+00  0.10915365E+01  0.11269932E+01 -0.16954178E+02
  0.31211653E+01 -0.45404320E+01 -0.60521488E+01  0.81650001E+00
  0.11353197E+01 -0.19928207E+01  0.10430183E+01 -0.25809250E+01
  0.46962976E-01  0.30409877E+01 -0.11915779E+01  0.96175605E+00
 -0.18254305E+02  0.40652580E+01 -0.38976639E+02  0.37998062E+02
 -0.22253876E+02  0.54544687E+01  0.15347374E+02 -0.28659790E+01
 -0.52428360E+01 -0.22536192E+01  0.18733271E+01  0.18808315E+01
 -0.43471785E+01 -0.42598820E+01  0.68740034E+01 -0.86680908E+01
  0.13091698E+02  0.19776108E+02 -0.94230890E+01  0.93041646E+00
 -0.87512522E+01 -0.19371969E+01  0.73051834E+01  0.41424298E+01
  0.23743391E+01 -0.12347584E+01 -0.10308002E+00 -0.11345816E+00
 -0.42388607E-01 -0.54478396E-01  0.37894849E-01 -0.71249014E+00
 -0.99690706E+00  0.42135198E-01 -0.17244508E-01  0.18175336E-01
  0.22615844E-01  0.40037408E-02 -0.35507255E-02 -0.27820380E-01
 -0.77944398E-01  0.14688867E+00  0.16636170E-01  0.53210996E-01
  0.95628870E+00 -0.70051461E+00  0.17104764E-01  0.31993400E-01
 -0.93262866E-02 -0.18731829E-01  0.20413630E-01 -0.50872727E-03
  0.29756284E+00  0.12934244E+00 -0.18983012E+00  0.71824849E-01
 -0.41808224E+00 -0.11720638E+00 -0.41143599E+00 -0.28631786E-01
  0.21437567E+00  0.25426919E-01  0.33951659E-01  0.75097613E-01
 -0.22934020E-01  0.60831446E-01  0.26703393E+00  0.11492735E+00
 -0.14872837E+00  0.15820682E+00  0.73452610E+00 -0.15326774E+00
 -0.20186377E+00  0.79028957E-01 -0.39597563E-02 -0.69052167E-02
 -0.35170142E-02  0.39248485E-01  0.77993286E+00  0.11083746E+01
  0.43744078E+00  0.59175074E+00  0.27468514E+00  0.27732401E+01
  0.21687405E+01 -0.25144768E+00  0.20495268E-01 -0.25761267E-01
  0.13951998E-02 -0.70093565E-01  0.10886872E+00 -0.10175123E+01
  0.14403580E+01 -0.19194680E+01  0.23482403E-01 -0.27122623E+00
 -0.25169382E+01  0.30849991E+01 -0.93018353E-01 -0.32557720E+00
 -0.32845687E-01  0.71069181E-01 -0.18071032E+00 -0.11195785E+00
 -0.68460888E+00  0.29701370E+00  0.60023886E+00  0.74086189E-01
  0.98181754E+00  0.17232141E-01  0.71498251E+00  0.15950716E+00
 -0.32126063E+00 -0.25459522E-01  0.10034925E+00 -0.21438284E+00
  0.80607355E-01  0.29350961E-01 -0.52844387E+00 -0.36183965E+00
 -0.28149527E+00  0.92464566E-01 -0.15573701E+01 -0.51209647E-01
  0.32866800E+00 -0.38855325E-01  0.12696608E-01  0.45670737E-01
 -0.69922102E-02 -0.22250840E-01 -0.49448672E+00 -0.11309271E+01
 -0.43056560E+00 -0.97913963E+00 -0.75081778E+00 -0.50914221E+01
 -0.24884195E+01  0.29986811E+00  0.74715838E-02 -0.13069282E-01
 -0.12120259E+00  0.20640136E+00 -0.19321388E+00  0.16908380E+01
 -0.17447996E+01  0.30932491E+01 -0.34096673E+00  0.17136320E-01
  0.35928824E+01 -0.54552412E+01  0.32137137E-01  0.51082975E+00
  0.19546562E+00 -0.10672492E+00  0.28139514E+00  0.41073266E-01
 -0.29096516E-01  0.21864381E-01  0.12243152E-01  0.32921236E-01
  0.26921557E-01 -0.18893566E-01  0.16802768E-02  0.28694057E+00
 -0.29211944E+00  0.16393879E-01  0.94393194E-02 -0.60703456E-02
 -0.10121062E-02  0.22870012E-01  0.40416900E-01  0.20207793E-02
  0.28009051E-01 -0.47511235E-01  0.16151294E-01  0.41487217E-02
  0.24980807E+00  0.29251510E+00 -0.41429587E-02  0.31435890E-02
  0.86209811E-02 -0.10191371E-01 -0.31774394E-01  0.34211449E-01
 -0.82030535E-01  0.80120206E-01  0.52378405E-01 -0.12363160E+00
  0.10513848E+00  0.79557300E-01 -0.65318108E-01 -0.10646765E+00
  0.76470137E-01  0.25804229E-02  0.20964760E-01  0.12791419E+00
  0.45520249E-02  0.28757796E-01  0.62985361E-01  0.84955096E-01
 -0.12073988E+00 -0.98188937E-01  0.52158497E-01  0.69911301E-01
 -0.42228647E-01 -0.41942723E-01 -0.53663676E-04  0.20629903E-01
 -0.84972262E-01  0.74791489E-02 -0.72876990E-01  0.54825366E-01
  0.78998543E-02  0.21651429E-02  0.11295613E-01 -0.22708066E-01
 -0.24967114E-01  0.23709925E+00  0.20721009E+00 -0.75820689E-02
 -0.66711716E-02  0.91338404E-01  0.75325787E-01 -0.11707541E-01
 -0.18225780E-02 -0.68179369E-02  0.26803996E-01  0.29882746E-01
 -0.50773583E-02 -0.38290664E-02 -0.20912650E+00  0.21416287E+00
 -0.53014234E-03  0.60032639E-02  0.42857222E-01 -0.81398368E-01
 -0.70250402E-02  0.28814858E-01  0.10183388E-01  0.45627076E-01
  0.34210831E-01 -0.13469204E-01 -0.16962208E-01  0.95584542E-02
  0.76674409E-02 -0.11811173E+00  0.10944933E+00  0.37916858E-01
  0.34320731E-01 -0.38995236E-01 -0.11582066E-01  0.56862938E-02
  0.19178797E-01 -0.19646438E-01 -0.19834880E-02 -0.70472513E-02
 -0.87856874E-02 -0.38532328E-02 -0.12558442E+00 -0.99743485E-01
 -0.44582158E-01 -0.84324479E-01 -0.50034773E-01  0.46942957E-01
  0.46193041E-02  0.71701999E-02 -0.12611548E-01  0.95665874E-03
 -0.12036864E-01 -0.67090063E-04 -0.20105047E-01  0.25720501E-02
  0.19281612E-02 -0.26651990E-01  0.87436736E-01  0.20321310E-01
 -0.69049001E-01  0.10091057E-02  0.10883667E-01 -0.17108638E-01
 -0.87443851E-02  0.57800971E-02  0.46012322E-02  0.20599570E-01
 -0.53997189E-02  0.58125625E-02 -0.57532750E-02  0.34642287E-01
  0.31471014E-01 -0.11714597E-01 -0.16319931E-01 -0.50641309E-01
  0.25461501E-01  0.27247520E-01  0.11968784E-01  0.18001124E-01
 -0.22403056E-01  0.21385523E-01  0.13279281E-01 -0.25084522E-01
  0.21860246E-01  0.28222948E-02  0.35862550E-01  0.60812443E-01
  0.43446869E-02  0.19660836E-01  0.30596416E-01 -0.88513829E-02
 -0.24848018E-01 -0.96459314E-02 -0.90757385E-02 -0.20335526E-02
  0.29977398E+01 -0.81961863E-02  0.18906318E-01  0.31932627E-02
 -0.40838043E-02 -0.23357219E-03  0.76571526E-02 -0.79752170E-02
  0.34400285E-03  0.20014942E+00 -0.29716199E-01  0.52193098E-01
  0.37738368E-01 -0.50039212E-02 -0.29981712E-01 -0.13986629E-01
  0.22926545E-02 -0.21308565E-02  0.13428993E+01  0.44498190E-01
 -0.18523584E+00 -0.17925262E+00  0.45948785E-01  0.47860365E-01
 -0.33176940E-01  0.42967811E-01  0.43051202E-01 -0.47216853E+00
 -0.16368181E+00 -0.10566968E+00 -0.59037436E-01 -0.33112377E-01
  0.11583865E+00  0.14226821E-01  0.78643629E-04  0.69223386E-02
 -0.23492825E+01  0.67165673E-01  0.47879130E+00  0.52358502E+00
 -0.15943331E+00 -0.14764255E+00  0.48829697E-01 -0.51714528E-01
 -0.10612428E+00  0.24342522E+00  0.16540092E+00  0.64394534E-01
  0.85904822E-02  0.40568676E-01 -0.88596344E-01 -0.20141602E-02
 -0.10498879E-02 -0.26079479E-02  0.11590290E+01 -0.87880909E-01
 -0.30248934E+00 -0.36426729E+00  0.13489676E+00  0.10174662E+00
 -0.20617874E-01  0.17740108E-01  0.64807892E-01  0.14391306E-01
 -0.21309040E+00 -0.33884132E+00  0.10892763E-01 -0.42811520E-02
 -0.25248926E-02  0.12565411E-01 -0.44771396E-02  0.69199530E-02
  0.26753717E-02  0.35680091E+00 -0.20014954E+00 -0.98086223E-02
  0.87794177E-02 -0.34690206E-02 -0.91818944E-02  0.56939311E-02
  0.10811757E-01 -0.10302395E+00  0.19964647E+00  0.12284160E+00
  0.62227909E-01  0.39830700E-01 -0.31292230E-01 -0.18277897E-01
  0.34071937E-01 -0.24559934E-01  0.73183656E-01 -0.31019021E-01
  0.22225292E+00 -0.79470754E-01 -0.39866906E-01  0.20936767E-01
 -0.13295945E-01  0.57061117E-01  0.55259667E-01 -0.22905076E+00
  0.90782642E+00  0.16330605E+01  0.19163444E-02  0.35776567E-01
  0.49570460E-01 -0.11902386E+00  0.45402091E-01 -0.11314363E+00
 -0.39456537E+00 -0.17365063E+01  0.86957514E+00  0.16775034E+00
 -0.85004151E-01  0.42578943E-01  0.72186649E-01 -0.78504860E-01
 -0.12058395E+00  0.13912697E+01 -0.96152514E+00 -0.60672939E+00
 -0.13106681E-01 -0.41902941E+00  0.11963302E+00  0.62974282E-02
 -0.18483324E+00  0.25544435E+00  0.54170632E+00  0.34240025E+00
 -0.99347806E+00  0.24775451E+00  0.47574925E+00 -0.18045484E+00
  0.13595831E+00 -0.61139071E+00 -0.26010543E+00  0.74438137E+00
 -0.80979353E+00 -0.17164000E+01 -0.35758603E+00 -0.14151997E-01
 -0.13134676E+00  0.27793384E+00 -0.11998469E+00  0.27071470E+00
  0.13506945E+01  0.16267356E+01 -0.12598553E+01 -0.31339693E+00
  0.68517029E-01 -0.18701576E+00 -0.86923420E-01  0.14469230E+00
  0.22702868E+00 -0.34414785E+01  0.10698557E+01  0.14466066E+01
 -0.78836627E-01  0.10688086E+01 -0.78987241E-01  0.20188455E+00
  0.36264935E+00 -0.72390538E+00 -0.21533566E+01 -0.86708015E+00
  0.16319656E+01 -0.28797519E+00 -0.10868006E+01  0.50646031E+00
 -0.39900687E+00  0.15120944E+01  0.29860812E+00 -0.48577076E+00
  0.13015091E+00  0.95722878E+00  0.44391340E+00 -0.32366667E-01
  0.12413591E+00 -0.17610566E+00  0.96929371E-01 -0.16703933E+00
 -0.11894512E+01 -0.38839000E+00  0.71710134E+00  0.12543809E+00
  0.23892200E-01  0.17996968E+00 -0.33655792E-01 -0.64367652E-01
 -0.11553252E+00  0.22641020E+01 -0.19882113E-01 -0.99476326E+00
 -0.88516831E-01 -0.73695374E+00  0.47051865E-02 -0.22439906E+00
 -0.23656234E+00  0.55085856E+00  0.17834071E+01  0.62063682E+00
 -0.85358530E+00  0.12144196E+00  0.67288089E+00 -0.39924723E+00
  0.35274625E+00 -0.10284061E+01 -0.55081528E-01 -0.42461529E-02
 -0.19090572E-01 -0.21750685E-02  0.77972591E-01 -0.10230899E+00
 -0.61414950E-02 -0.60802400E-02 -0.60765664E-02 -0.31842440E-02
  0.36602344E-02 -0.20476624E-01  0.19559986E-02  0.12126583E+00
  0.80235839E-01 -0.91823526E-02 -0.76314099E-02  0.35730619E-02
 -0.18788263E-02  0.73799253E-01  0.18658286E+00  0.25844133E-01
  0.38106725E-01  0.13187512E-01  0.33492073E-01 -0.36260985E-01
 -0.13196411E-01 -0.99324882E-02  0.14192871E-01 -0.25389522E-01
 -0.18034408E-01  0.66986740E-01  0.37657667E-01  0.83836555E-01
 -0.19943714E-01 -0.24610313E-01  0.22301380E-01 -0.17031062E+00
  0.24293564E+00 -0.47562115E-01 -0.18710291E+00 -0.21173184E+00
  0.45424968E-01  0.10562469E+00  0.11877581E-01  0.27717492E-01
 -0.23334759E+00  0.18515386E-01 -0.18031676E+00  0.16339771E+00
 -0.16562819E+00  0.22401253E-01  0.12215626E+00 -0.20599376E-01
 -0.22505933E-01 -0.23864312E+00 -0.10410758E+01  0.20875807E+00
  0.41495822E-02 -0.14400750E+00 -0.13934612E-01  0.98016083E-01
  0.64151287E-01 -0.90540037E-03  0.43185464E+00  0.47100693E+00
  0.23188818E+00 -0.12820059E+00  0.30625874E+00 -0.37186649E+00
  0.27746355E-01  0.18685448E+00 -0.14788830E+00  0.31099784E+00
 -0.51439345E+00  0.33028477E-02 -0.17644372E-01  0.89867830E-01
 -0.63249946E-01 -0.14556962E+00 -0.11969469E-01 -0.39798412E-01
  0.37246841E+00 -0.99704146E-01  0.28348404E+00 -0.27310556E-01
 -0.17952356E-02  0.30666629E-01 -0.20847888E+00 -0.28230350E-02
  0.19477865E-01  0.20202784E+00  0.14707640E+01 -0.31790841E+00
 -0.87093830E-01  0.18147080E+00 -0.21470474E-01 -0.88236153E-01
 -0.84560633E-01  0.35590552E-01 -0.68945134E+00 -0.61575747E+00
 -0.83507538E-01  0.61113440E-01 -0.57205105E+00  0.39900196E+00
  0.70120335E-01 -0.22128370E+00  0.17749646E+00 -0.23316428E-01
  0.12048602E-01  0.23783315E-02  0.92227734E-03  0.47883238E-02
  0.22830907E-01 -0.44083364E-01 -0.45512468E-02  0.17387260E-02
 -0.70657879E-02 -0.15885700E-01 -0.40105842E-02 -0.69217123E-02
 -0.58886260E-02  0.35231207E-01  0.42952798E-01  0.33667523E-02
 -0.20392444E-02  0.59208654E-01  0.63783467E-01  0.12437731E-01
 -0.64228058E-01  0.13783633E-01 -0.51416833E-01  0.18383341E-01
  0.69502769E-02  0.81083290E-02  0.40749948E-01 -0.75332182E-02
 -0.27416047E-01 -0.33444658E-01 -0.19954121E-01  0.60441415E-02
 -0.56821901E-01  0.11292342E-02  0.17509492E-01 -0.67723930E-01
 -0.14539140E+00 -0.30557400E-01  0.45087747E-02 -0.46182219E-01
 -0.15280163E+00 -0.10240619E+00  0.26795983E-01 -0.21112163E-02
 -0.47966205E-01  0.10730193E-01 -0.31358361E-01  0.15586140E-01
 -0.61677694E-02  0.13321459E+00 -0.20194066E+00  0.10347780E-01
 -0.12390454E-01 -0.18478956E-01 -0.15848845E-01  0.85952654E-02
  0.16202677E-01  0.12485576E-02 -0.19915239E-02  0.31446819E-02
  0.44241477E-01 -0.30390825E-03 -0.94869845E-02  0.91496035E-02
 -0.60107480E-02 -0.70505962E-02 -0.37957486E-02  0.63174265E-03
  0.55268030E-02 -0.33853739E-03  0.48207466E-01  0.65101504E-01
  0.29953867E-01 -0.47032386E-02 -0.26011158E-01 -0.31840345E-02
  0.30755347E-02  0.13277408E-02  0.22132436E-01  0.82672723E-02
 -0.78570247E-02 -0.45788117E-01  0.51256302E-02  0.33361401E-01
 -0.11823521E-01 -0.16863131E-02 -0.15676618E-01  0.17375017E-01
  0.15721172E-01  0.64684786E-02 -0.96570849E-02  0.89065656E-02
 -0.50537400E-02 -0.49813055E-02  0.20753630E-02  0.76234303E-02
 -0.90143494E-02  0.38806566E-02  0.70466399E-02  0.23270644E-01
 -0.98308958E-02 -0.23814661E-02 -0.12868521E-02  0.14961662E-01
  0.29478408E-02 -0.25250821E-02  0.35902052E-02  0.68825744E-02
  0.69127004E-02  0.12519724E-01  0.12947413E-01 -0.24092742E-02
  0.11634666E-02 -0.38903586E-02 -0.92853437E-03  0.12939579E-02
 -0.27606012E-02 -0.23899183E-02 -0.13654519E-01 -0.14725208E-02
  0.18952836E-02  0.95515475E-02  0.27220517E-02 -0.41225250E-02
  0.64941794E-02  0.26891699E+01 -0.77640079E-02  0.11127226E-01
  0.56581008E-02  0.55255595E-03  0.19188959E-02  0.38992227E-02
 -0.63712634E-02 -0.10736038E-02  0.89743257E-01  0.20814056E-01
  0.49664252E-01  0.12002766E-01  0.16872058E-01 -0.14828339E-01
 -0.20098081E-01 -0.71201287E-02 -0.10063168E-01  0.14451989E+01
  0.18207381E-01 -0.12469007E+00 -0.77557147E-01  0.96017905E-02
  0.50489227E-02  0.77703628E-02  0.43605082E-01  0.20670583E-01
 -0.10420048E+00 -0.30086064E+00 -0.98388195E-01 -0.17734095E-01
 -0.10223061E+00  0.44458363E-01  0.44485766E-01  0.28927311E-01
  0.21576229E-01 -0.26058178E+01  0.11795593E+00  0.28667599E+00
  0.16859519E+00 -0.69919109E-01 -0.51369853E-02 -0.43885093E-01
 -0.75206399E-01 -0.15287776E-01  0.39084069E-02  0.23944090E+00
  0.64139605E-01  0.46739057E-02  0.91723323E-01 -0.28238663E-01
 -0.27856348E-01 -0.21242142E-01 -0.13344119E-01  0.13095465E+01
 -0.10214919E+00 -0.16770975E+00 -0.98850541E-01  0.73869824E-01
 -0.47578216E-02  0.37430067E-01  0.40278368E-01 -0.92505589E-02
  0.23524527E-01 -0.34971905E+00 -0.28617579E+00  0.24448624E-02
  0.10531452E-02 -0.24429683E-02  0.79786703E-02 -0.32044223E-02
  0.65662451E-02 -0.49985647E-02  0.30120927E+00 -0.33876920E+00
 -0.98431110E-02 -0.94157760E-03 -0.78012803E-04 -0.10437773E-01
  0.98567717E-02  0.11818309E-01 -0.57822526E-01  0.21672080E+00
  0.88802397E-01 -0.38946371E-02  0.58250647E-01 -0.24885841E-01
 -0.17417109E-01  0.15775122E-01 -0.64615905E-02  0.32139465E-01
  0.32517146E-01  0.21158406E+00 -0.15073597E-01 -0.36884345E-01
  0.46076272E-01  0.17812059E-02  0.35551559E-01  0.46800572E-01
 -0.24651740E+00  0.11098005E+01  0.93898606E+00  0.13167661E+00
  0.78329667E-02  0.21393836E-01  0.26152806E-01  0.99524148E-02
 -0.16420490E+00 -0.35180089E+00 -0.94679415E+00  0.12385635E+01
  0.81863344E-01  0.52147958E-01 -0.94125010E-02  0.86879611E-01
 -0.13224542E+00 -0.17574912E+00  0.77992594E+00 -0.13512276E+01
 -0.66809845E+00  0.17822577E-01 -0.50182986E+00  0.64230561E-01
 -0.65235972E-01 -0.17756592E+00  0.55901706E-01  0.60895658E+00
 -0.39232604E-01 -0.12162886E+01 -0.19391635E-01  0.24424779E+00
 -0.32840198E+00  0.16300701E-01 -0.27074844E+00 -0.22464836E+00
  0.55456519E+00 -0.69234842E+00 -0.40266696E+00 -0.63226157E+00
  0.10810312E-01 -0.15206471E-01 -0.15813009E+00  0.76063037E-01
  0.54846871E+00  0.12965288E+01 -0.14871562E+00 -0.16574057E+01
 -0.77499509E-01 -0.24706510E+00 -0.49161386E-01 -0.18116426E+00
  0.29508817E+00  0.42510372E+00 -0.19151392E+01  0.23017206E+01
  0.19343644E+01  0.18132132E+00  0.97290933E+00 -0.32005329E-01
  0.30257875E+00  0.47717172E+00 -0.22451323E+00 -0.23164320E+01
 -0.23464796E-02  0.23696499E+01  0.11396230E+00 -0.30829370E+00
  0.81678474E+00 -0.14368922E+00  0.57714278E+00  0.30708337E+00
 -0.28491080E+00  0.36383953E-01  0.31162423E+00  0.57425320E+00
 -0.42527661E-01  0.73678861E-02  0.16507232E+00 -0.12021208E+00
 -0.42351905E+00 -0.11174612E+01  0.66397589E+00  0.92702854E+00
 -0.17574133E-01  0.21021616E+00  0.75819194E-01  0.74323654E-01
 -0.16377258E+00 -0.30484438E+00  0.11824274E+01 -0.11248283E+01
 -0.14524230E+01 -0.21500514E+00 -0.54644215E+00 -0.13700273E-01
 -0.25452745E+00 -0.35112607E+00  0.19990943E+00  0.20050182E+01
  0.13328120E-01 -0.14572992E+01 -0.51557053E-01  0.12367893E+00
 -0.57814133E+00  0.17719764E+00 -0.37120977E+00 -0.99483013E-01
 -0.84307924E-03 -0.17258720E-01 -0.53407182E-02  0.81290662E-01
 -0.76485693E-01 -0.47752857E-02  0.17251113E-02 -0.37566551E-02
 -0.43733157E-02  0.26733198E-02 -0.18344464E-01  0.50127059E-02
  0.71141422E-01  0.87314069E-01 -0.61744680E-02 -0.70299730E-02
  0.26243478E-02 -0.23496000E-02  0.28444365E-01  0.11505324E+00
 -0.33933113E-02  0.28973152E-02  0.92887580E-01  0.31396374E-01
 -0.23507848E-01 -0.87130778E-02 -0.41673444E-02  0.46873268E-01
  0.13442471E-01 -0.25793346E-01 -0.76117992E-01  0.18148191E-01
  0.74972928E-01  0.14298555E-01 -0.31826302E-01  0.11931221E-01
 -0.10709220E+00  0.17803705E+00  0.89736991E-02 -0.42456064E+00
  0.21876010E+00 -0.10819509E-01  0.28348541E-01 -0.17255737E-01
  0.18319871E-01 -0.19474296E+00  0.41860357E-01 -0.13339257E+00
 -0.18719764E+00 -0.42420572E+00 -0.77197962E-02  0.99332154E-01
 -0.31550217E-01 -0.35813104E-01  0.40004592E-01 -0.68339717E+00
  0.27681798E+00 -0.17132305E-01 -0.32585520E+00  0.31075010E-02
  0.79180360E-01  0.84248841E-01 -0.97170286E-02  0.93430877E-01
  0.14520723E+00  0.17805336E+00  0.36324471E+00  0.13691723E+00
 -0.32484740E+00 -0.81565976E-01  0.24830070E+00 -0.83268046E-01
  0.17182922E+00 -0.39017051E+00 -0.75088441E-01  0.10350132E+00
 -0.59314132E+00  0.26216136E-01 -0.36645234E-01  0.51128767E-01
 -0.23116680E-01  0.29115206E+00 -0.16628718E+00  0.17287152E+00
  0.57455140E+00  0.10316521E+00  0.24566704E-01 -0.18611246E+00
  0.36977731E-01  0.51306792E-01 -0.20561790E+00  0.10611658E+01
 -0.37965369E+00  0.59568025E-02  0.27356154E+00 -0.27140493E-01
 -0.93819201E-01 -0.12059696E+00  0.53143971E-01 -0.24612650E+00
 -0.89114845E-01 -0.68045080E-01 -0.36101604E+00 -0.25655359E+00
  0.38696355E+00  0.15423262E+00 -0.32276905E+00  0.91858685E-01
 -0.19476928E-01  0.73561030E-02  0.17873570E-02 -0.35678833E-02
 -0.33237983E-02  0.33766452E-01 -0.63296556E-01 -0.19452671E-02
 -0.13239881E-02 -0.42364784E-02 -0.10886640E-01  0.13287687E-02
  0.24953787E-03 -0.21379865E-02  0.55756997E-01  0.50980333E-01
  0.43777418E-02 -0.78862309E-02  0.35293180E-01  0.57927500E-01
  0.91379695E-02 -0.24990181E-01  0.15874527E-01 -0.32756235E-01
 -0.91940798E-02  0.63448362E-02  0.59108059E-02  0.20577457E-01
  0.78460500E-02 -0.80252253E-02 -0.28437277E-01 -0.12757894E-01
  0.18312814E-01 -0.39697696E-01 -0.13474633E-02  0.13109336E-01
 -0.83176978E-02 -0.11117947E+00 -0.57078409E-03  0.10578159E-01
 -0.20841744E-01 -0.17377388E+00 -0.81262529E-01  0.16026542E-01
  0.58632642E-02 -0.14602412E-01 -0.52710972E-03 -0.37079420E-01
  0.15373140E-01  0.46844824E-03  0.11484051E+00 -0.20478857E+00
 -0.60416013E-02  0.15950162E-01 -0.92366859E-02 -0.13327929E-01
  0.76846969E-02  0.44647716E-02  0.99554379E-03 -0.25372533E-02
  0.11280878E-02  0.34911960E-01  0.61604748E-02 -0.65696426E-02
  0.27554485E-02 -0.89025460E-02 -0.58459700E-03 -0.36023045E-02
  0.17695032E-02  0.71463883E-02 -0.67619309E-02  0.35612646E-01
  0.37786972E-01  0.27549386E-01 -0.10036920E-01 -0.17617412E-01
 -0.51135980E-02 -0.85136071E-02  0.82170218E-02  0.34347039E-01
  0.35131625E-02  0.34137517E-02 -0.39485250E-01  0.19134531E-01
  0.13404503E-01 -0.16808830E-01 -0.10705445E-01 -0.19780356E-01
  0.15510092E-01  0.21839622E-01  0.12911428E-01 -0.73543191E-02
  0.50285608E-02  0.59204106E-03 -0.34981018E-02  0.37478309E-02
  0.20511297E-02 -0.60793981E-02  0.34043845E-02  0.10783732E-01
  0.17769098E-01 -0.77495468E-02  0.85491623E-03 -0.31315386E-02
  0.84124953E-02  0.57312618E-02  0.12188158E-02  0.74360073E-02
  0.63715726E-02  0.54682344E-02  0.96778497E-02  0.52643046E-02
 -0.51632933E-02  0.32400470E-02 -0.58748294E-03 -0.52953465E-03
  0.25913932E-02  0.41622822E-02 -0.12601026E-02 -0.82769878E-02
  0.12908092E-02 -0.11074101E-02  0.28636474E-02  0.26873224E-02
 -0.14917086E-02  0.50641405E-02
