  0.51813755E+01 -0.10739881E+00  0.18743366E+00  0.31032018E-01
 -0.31483453E-01  0.46369396E-02 -0.17831050E-01  0.25944993E-01
 -0.39442889E-01  0.11673882E-01  0.13706180E-01  0.52697578E-03
 -0.25141253E-02 -0.16610041E+01 -0.63904023E+00  0.52825075E+00
 -0.35923615E+00  0.32526952E+00  0.38260393E-01  0.74715309E-01
 -0.12071173E+00 -0.12027264E+00 -0.22109207E-01 -0.18548496E-02
  0.25158876E-02  0.43518770E-01  0.11134710E+02  0.21947019E+01
 -0.38336277E+01  0.41743031E+00  0.46625575E+00 -0.36733785E+00
  0.96669585E+00 -0.55345798E+00  0.46823844E+00 -0.48935539E+00
 -0.64198560E+00 -0.11552799E+00  0.34517925E-01  0.20840197E+02
  0.53288755E+01 -0.30419121E+01  0.70807419E+01 -0.30199432E+01
  0.25945337E-01 -0.33274746E+01  0.13975238E+01  0.53362620E+00
  0.27826804E+00  0.33125121E-01  0.62786597E+00 -0.52923745E+00
 -0.79337799E+02 -0.14883758E+02  0.22834852E+02 -0.51182175E+01
 -0.11177419E+02  0.16302795E+01 -0.79739599E+01  0.32296658E+01
 -0.12089567E+01  0.36283169E+01  0.44965773E+01  0.86827534E+00
 -0.31795710E+00 -0.60320339E+02 -0.19182144E+02 -0.33956969E+01
 -0.32669113E+02  0.17268827E+02 -0.60134012E+00  0.18945450E+02
 -0.86268520E+01 -0.11386642E+01 -0.19328127E+01  0.17548665E+01
 -0.65107784E+01  0.11776743E+01  0.18447604E+03  0.42060059E+02
 -0.56183029E+02  0.14291059E+02  0.41250351E+02 -0.34360695E+01
  0.21798126E+02 -0.76566505E+01  0.13683518E+01 -0.94252586E+01
 -0.11468616E+02 -0.22709806E+01  0.12029743E+01  0.74724304E+02
  0.34598541E+02  0.32904587E+02  0.59504913E+02 -0.45993332E+02
 -0.96503568E+00 -0.41161530E+02  0.22533398E+02  0.26252191E+01
  0.52893238E+01 -0.82092028E+01  0.18131802E+02 -0.36847979E+00
 -0.19413284E+03 -0.49194942E+02  0.61412079E+02 -0.15853178E+02
 -0.53150242E+02  0.39649017E+01 -0.23896530E+02  0.79412017E+01
 -0.10084867E+01  0.10269411E+02  0.12102466E+02  0.25096750E+01
 -0.16858006E+01 -0.42284897E+02 -0.29988327E+02 -0.47852020E+02
 -0.47470261E+02  0.53297443E+02  0.41365795E+01  0.38657391E+02
 -0.24937683E+02 -0.36407509E+01 -0.61866503E+01  0.11591171E+02
 -0.19596479E+02 -0.89709467E+00  0.75968063E+02  0.19798080E+02
 -0.24477797E+02  0.62807322E+01  0.22585159E+02 -0.18408318E+01
  0.91339483E+01 -0.30013292E+01  0.41616121E+00 -0.40143051E+01
 -0.44904709E+01 -0.10010843E+01  0.77694696E+00  0.95251894E+01
  0.10003698E+02  0.20788956E+02  0.13931004E+02 -0.21926086E+02
 -0.26575909E+01 -0.13174493E+02  0.97861652E+01  0.17670220E+01
  0.25980017E+01 -0.51927881E+01  0.73529778E+01  0.56848937E+00
 -0.20119765E+00  0.15843161E+01  0.18475235E+01 -0.47732753E-03
 -0.13149089E+00 -0.13344646E-01  0.26832482E-01  0.30770520E-01
 -0.20653838E-01  0.10311012E-02  0.70003862E-02 -0.62839799E-02
 -0.99203400E-02  0.70720077E-01 -0.16220541E+01  0.15745572E+01
  0.24463177E-01  0.20518377E+00  0.19001583E-01  0.56619723E-02
 -0.39436929E-02  0.51251244E-01 -0.10332141E-01  0.11076463E-01
 -0.14877490E-01  0.19403500E-01 -0.90413523E+00  0.15951061E+01
 -0.32156926E+00  0.67641193E+00 -0.58352780E+00  0.14265887E+00
  0.43839272E-01 -0.37467855E+00  0.20368481E+00  0.66211224E-01
  0.16507995E+00  0.45068014E-01  0.21851064E+00 -0.25522107E+00
  0.10744390E+01  0.77017993E+00  0.52008659E+00  0.31209916E+00
  0.15328670E+00 -0.16450721E+00  0.30181509E-01  0.98174214E-01
 -0.20944308E-01 -0.68538666E-01  0.44294231E-01  0.10606259E+00
  0.43100529E+01  0.10209759E+02  0.10042840E+02  0.17070236E+01
  0.11407775E+00  0.15409269E+01 -0.69876659E+00 -0.72542685E+00
  0.74991882E+00 -0.28893924E+00 -0.34130789E-01  0.30699372E+00
  0.49604353E+00 -0.37056029E+00 -0.13278564E+02  0.55308042E+01
  0.54367453E+00 -0.10339451E+01 -0.52278471E+00  0.11216927E+01
 -0.80142045E+00 -0.27339017E+00  0.27401740E-01  0.37330829E-02
  0.88551915E+00 -0.19130906E+00  0.15317790E+02 -0.13764861E+02
  0.45487280E+01 -0.40844536E+01  0.10961870E+02 -0.27308998E+01
 -0.39546225E+01  0.59212513E+01 -0.20589111E+01 -0.41854754E+00
 -0.23430901E+01 -0.11522579E+01 -0.30893288E+01  0.34036415E+01
 -0.14668044E+02 -0.73346095E+01 -0.88265238E+01 -0.11719309E+02
 -0.30766163E+01  0.42914267E+01 -0.19813080E+01 -0.91186035E+00
 -0.14789381E+01  0.34925079E+00  0.82151622E+00 -0.14842310E+01
 -0.21855593E+02 -0.65027206E+02 -0.30625290E+02 -0.61926727E+01
 -0.35101621E+01 -0.17476912E+02  0.71970272E+00  0.40459499E+01
 -0.35212376E+01  0.19424438E+01 -0.18655061E+01 -0.29581993E+01
 -0.35298369E+01  0.45670977E+01  0.37643356E+02 -0.25258652E+02
 -0.83348713E+01  0.25785332E+01  0.53328462E+01 -0.97375669E+01
  0.63686442E+01  0.81883103E+00 -0.19984322E+01 -0.17359772E+01
 -0.85691080E+01  0.44630432E+00 -0.83068283E+02  0.81330490E+02
 -0.13745288E+02 -0.39484613E+01 -0.48257339E+02  0.27937880E+02
  0.28801771E+02 -0.31976974E+02  0.32318888E+01  0.10558329E+01
  0.14404617E+02  0.91635990E+01  0.14174400E+02 -0.37831268E+02
  0.88615479E+02  0.85113358E+02  0.45270035E+02  0.76213257E+02
  0.17117205E+02 -0.29024534E+02  0.17087751E+02  0.68407339E+00
  0.12642256E+02  0.57222117E-01 -0.97055807E+01  0.69868464E+01
  0.33955753E+02  0.13318353E+03 -0.21473757E+02  0.25355750E+00
  0.13797762E+02  0.59645031E+02  0.50354242E+01 -0.86467609E+01
  0.35548904E+01 -0.50609384E+01  0.10475528E+02  0.11849052E+02
  0.96025867E+01 -0.88309050E+01  0.25576004E+02  0.12401311E+02
  0.32052368E+02 -0.87352169E+00 -0.18661942E+02  0.23053528E+02
 -0.18508957E+02 -0.16507330E+01  0.99664297E+01  0.73132496E+01
  0.25814545E+02 -0.15154305E+01  0.21601781E+03 -0.21782784E+03
  0.13970534E+02  0.51641006E+02  0.82136398E+02 -0.96018158E+02
 -0.80168457E+02  0.78118790E+02  0.89466515E+01  0.96090555E-01
 -0.40393986E+02 -0.29548920E+02 -0.28057665E+02  0.11636549E+03
 -0.24491013E+03 -0.28724512E+03 -0.10040261E+03 -0.19873131E+03
 -0.43567261E+02  0.75220825E+02 -0.51479691E+02  0.52787189E+01
 -0.37214554E+02 -0.12265168E+01  0.29498688E+02 -0.13845214E+02
 -0.66059847E+01 -0.12299649E+03  0.11331443E+03  0.16227598E+02
 -0.18005980E+02 -0.79721268E+02 -0.89493876E+01  0.85854511E+01
  0.19708023E+01  0.53805790E+01 -0.17981733E+02 -0.18486025E+02
 -0.10671740E+02  0.65107279E+01 -0.14133873E+03  0.35762985E+02
 -0.47331757E+02 -0.99259748E+01  0.24949982E+02 -0.18619169E+02
  0.21813093E+02  0.29833364E+01 -0.15825302E+02 -0.94992352E+01
 -0.31681841E+02  0.30539846E+01 -0.26602246E+03  0.25943335E+03
 -0.85672159E+01 -0.89114334E+02 -0.59151917E+02  0.12887793E+03
  0.96713989E+02 -0.87241043E+02 -0.24014772E+02 -0.39270322E+01
  0.50494324E+02  0.40384109E+02  0.24323545E+02 -0.12623462E+03
  0.30866846E+03  0.37077539E+03  0.10442806E+03  0.23109668E+03
  0.52738194E+02 -0.84341461E+02  0.64608047E+02 -0.10220553E+02
  0.46504440E+02  0.22121122E+00 -0.34443573E+02  0.11775062E+02
 -0.12208919E+02  0.45470348E+02 -0.71684982E+02 -0.12210123E+02
  0.75946207E+01  0.36560390E+02  0.36604087E+01 -0.33766203E+01
 -0.28442256E+01 -0.19091835E+01  0.96889944E+01  0.94606447E+01
  0.40775509E+01 -0.14950647E+01  0.93858490E+02 -0.31066879E+02
  0.23789322E+02  0.11685203E+02 -0.11222385E+02  0.36598969E+01
 -0.87570095E+01 -0.21024263E+01  0.80605850E+01  0.36843078E+01
  0.13835385E+02 -0.17752295E+01  0.12323455E+03 -0.11393224E+03
  0.28638351E+01  0.45115498E+02  0.14615675E+02 -0.59010239E+02
 -0.42132614E+02  0.35980785E+02  0.14087955E+02  0.33986537E+01
 -0.22851334E+02 -0.19381165E+02 -0.74500418E+01  0.42877960E+02
 -0.14127106E+03 -0.16386626E+03 -0.42104137E+02 -0.10067328E+03
 -0.24085190E+02  0.34423309E+02 -0.28762314E+02  0.50822930E+01
 -0.20915604E+02  0.88597655E+00  0.13771997E+02 -0.35257237E+01
  0.42188969E-01  0.94234288E-01 -0.10187069E-02 -0.95930177E+00
 -0.19991235E+00  0.58659378E-01  0.31168277E-02 -0.84970295E-02
  0.53929221E-01 -0.65914989E-02  0.57587516E-02 -0.14161857E-01
  0.11686263E-03  0.43799318E-01  0.11469414E-01  0.45734111E-01
  0.27424735E+00 -0.63086385E+00  0.69261752E-02  0.10186278E-02
 -0.43821827E-01  0.95467009E-02 -0.14789114E-01  0.76593338E-02
 -0.46657771E-02  0.73617138E-02  0.49559945E+00  0.82897669E+00
  0.47035185E+00  0.17087352E+00 -0.12786778E+01  0.15497788E-01
 -0.29272187E+00  0.50515067E-01  0.95190823E-01  0.12434429E+00
  0.34540424E-02 -0.43415301E-01  0.11710781E+00  0.91401219E-01
  0.34288967E+00  0.77033257E+00  0.19686363E+01  0.12333193E-02
  0.10140467E+00  0.14774442E+00 -0.73128641E-02 -0.67382753E-01
 -0.95939159E-01  0.81297629E-01  0.10078109E+00  0.75467944E-01
  0.15210743E+01  0.97265679E+00 -0.11593555E+00  0.81999540E+01
  0.12909287E+00 -0.11842976E+01 -0.96201408E+00  0.31217158E+00
 -0.70322371E+00 -0.43442760E-01 -0.39182201E+00 -0.10794252E+00
 -0.17477948E-01  0.28209305E+01  0.63783765E+00  0.71414834E+00
 -0.10531855E+01  0.46761045E+01  0.80202073E+00  0.12529793E-01
  0.56188387E+00 -0.26510638E+00  0.43705708E+00  0.11708755E+00
 -0.95809549E-02  0.27964652E+00 -0.60612841E+01 -0.50309401E+01
 -0.43330374E+01  0.93652096E+01  0.22353723E+01  0.19453353E+00
  0.13129739E+01 -0.80170625E+00 -0.83791232E+00 -0.26327211E+00
  0.91290659E+00  0.65617907E+00 -0.94384944E+00 -0.78995574E+00
 -0.36866465E+01 -0.43037767E+01 -0.60018616E+01  0.95902605E+01
  0.52022409E+00 -0.14935760E+01 -0.27530122E+00  0.18274929E+00
  0.21199743E+00 -0.55878663E+00 -0.25891751E+00  0.83397608E-03
 -0.13319073E+02 -0.63696752E+01  0.26987331E+01 -0.92368822E+01
  0.32915812E+01  0.60375071E+01  0.76720295E+01 -0.18980303E+01
  0.46611795E+01  0.43055257E+00  0.20732813E+01  0.14235934E+01
  0.31788766E+00 -0.14097286E+02 -0.46897783E+01 -0.82707214E+00
 -0.41121370E+00  0.23824079E+01 -0.26390638E+01  0.35508257E+00
 -0.23547945E+01  0.10697403E+01 -0.21197121E+01 -0.27898788E+01
  0.12480125E+01 -0.18391017E+01  0.15204086E+02  0.78556142E+01
  0.88966312E+01 -0.30797499E+02  0.23227119E+01 -0.58457470E+00
 -0.71814251E+00  0.30694103E+01  0.22050867E+01 -0.34793633E+00
 -0.29825599E+01 -0.19286659E+01  0.21556101E+01  0.39697592E+01
  0.58501611E+01  0.62696490E+01  0.49510412E+01 -0.31089186E+02
 -0.24617634E+01  0.39447885E+01  0.16149386E+01 -0.56727920E-01
  0.75868088E+00  0.79545927E+00  0.32469195E+00 -0.90026617E-01
  0.27027119E+02  0.11467044E+02 -0.84330359E+01 -0.24010485E+02
 -0.80087805E+01 -0.12543469E+02 -0.15589192E+02  0.42210331E+01
 -0.10726814E+02 -0.14858341E+01 -0.43507652E+01 -0.34340179E+01
 -0.92487758E+00  0.23143433E+02  0.78808746E+01 -0.27895355E+01
  0.60927567E+01 -0.40888386E+02  0.94554806E+00 -0.24960203E+01
  0.34536648E+01 -0.18722476E+01  0.37619505E+01  0.80734539E+01
 -0.44939146E+01  0.28656082E+01 -0.11953168E+02 -0.27238481E+01
 -0.52568321E+01  0.21050123E+02 -0.68679862E+01  0.32113910E+00
 -0.58306432E+00 -0.27074995E+01 -0.17911481E+01  0.77064550E+00
  0.22215376E+01  0.15297555E+01 -0.14433202E+01 -0.47204428E+01
 -0.10654535E+01 -0.18083953E+01  0.15844555E+01  0.20997585E+02
  0.19634619E+01 -0.33727376E+01 -0.18170271E+01 -0.17987984E+00
 -0.10957071E+01 -0.20409732E+00 -0.20305946E+00 -0.28999734E+00
 -0.15884968E+02 -0.64883633E+01  0.73605738E+01  0.31496780E+02
  0.69600091E+01  0.86443911E+01  0.96710367E+01 -0.29579742E+01
  0.75072079E+01  0.12868270E+01  0.29590073E+01  0.23414221E+01
  0.84001136E+00 -0.11925213E+02 -0.50585051E+01  0.18607302E+01
 -0.73451662E+01  0.40590576E+02  0.12435255E+01  0.30310061E+01
 -0.15552273E+01  0.12240763E+01 -0.21083281E+01 -0.60944829E+01
  0.37612360E+01 -0.10206299E+01  0.64615190E-01  0.78795552E-01
 -0.15892947E+00 -0.10464615E+00  0.10353975E+00 -0.41167966E+00
 -0.43749294E+00  0.20638653E-02  0.74383438E-01 -0.43644942E-03
 -0.90350350E-03 -0.19853504E-01 -0.59061539E-02  0.81961565E-01
 -0.21425918E+00 -0.38655452E-01 -0.88595822E-02 -0.14763264E+00
  0.46912336E+00 -0.45955449E+00 -0.42392030E-01 -0.80482624E-02
  0.18471882E-01 -0.14141251E-01  0.55350475E-02  0.16753860E-01
 -0.24682517E+00  0.65146202E+00 -0.45703116E+00 -0.23654190E+00
 -0.30039293E+00 -0.82151890E-01 -0.20593224E+00 -0.13945433E-01
  0.16855288E+00  0.32676265E-01  0.80637813E-01 -0.79479456E-01
 -0.61515283E-01 -0.29577321E+00 -0.25834906E+00  0.53513635E-01
  0.29484289E-01 -0.17856270E+00  0.19976068E+00  0.16096137E+00
 -0.13107131E+00 -0.10473931E+00 -0.19589694E-01  0.30329492E-01
  0.64674318E-01 -0.38300399E-01 -0.60273290E+00 -0.20669489E+00
  0.82746643E+00  0.46272588E+00 -0.10339415E+00  0.15778166E+00
 -0.30000043E+00 -0.28547913E+00  0.21799397E-01 -0.91843426E-01
 -0.55076401E-02  0.13837787E-01 -0.14949030E+00 -0.13389988E+01
  0.26402633E+01 -0.13628587E+01 -0.36753692E-01  0.15853024E+01
  0.13760418E+00  0.79008830E+00 -0.23089468E+00  0.14146332E+00
 -0.11153023E+00  0.23030403E+00 -0.12568080E+00 -0.15787458E+00
 -0.16602457E+00 -0.13449450E+01  0.96737874E+00  0.40215722E+00
  0.72849154E+00  0.41462141E+00  0.71418375E+00  0.10896404E+00
 -0.35342360E+00 -0.11979085E+00 -0.10750520E+00  0.23451696E+00
  0.13568753E+00  0.14382593E-01  0.82095027E+00 -0.72794139E-01
 -0.23630472E+00  0.75462168E+00 -0.65143400E+00  0.49917016E-01
  0.24157877E+00  0.31928110E+00 -0.23850445E-01 -0.63626945E-01
 -0.70730507E-01  0.35635930E-01  0.16258487E+01  0.63477248E+00
 -0.11753283E+01 -0.52329248E+00  0.51585090E+00  0.42656636E+00
  0.12154760E+01  0.54212022E+00 -0.33579049E+00  0.13298015E+00
 -0.58626544E-01 -0.93792498E-01  0.21695586E+00  0.19641676E+01
 -0.34773588E+01  0.24826536E+01 -0.47208840E+00 -0.22139664E+01
 -0.79506546E+00 -0.24327517E+00  0.67086709E+00 -0.30561268E-01
  0.17824250E+00 -0.29080105E+00  0.13225448E+00  0.22371998E+00
  0.78067660E-01 -0.53872090E-01 -0.60876328E-01 -0.20090356E-01
  0.19590056E-01  0.37616719E-01 -0.21996697E-01  0.30491668E+00
 -0.21350857E-01  0.73222150E-02  0.10664702E-01 -0.17186703E-01
 -0.79840198E-02  0.54252598E-01 -0.42442694E-01  0.41468628E-01
  0.11270583E-01 -0.79623401E-01 -0.27057892E-01  0.20517234E-01
  0.19652477E-01  0.27900285E+00  0.76455665E-02 -0.26138765E-02
  0.26082585E-02 -0.48174490E-02  0.37738152E-01  0.49505942E-01
  0.45610685E-01 -0.40265694E-01 -0.23026168E+00 -0.11767191E+00
 -0.47708195E-01  0.25821841E+00  0.16750067E+00 -0.34544688E-01
 -0.48518632E-01  0.20903071E-01  0.94813965E-02  0.18504436E+00
  0.13707680E+00 -0.76823056E-01  0.73215067E-01  0.25763607E+00
 -0.57229970E-01 -0.43995190E-01 -0.27386624E+00  0.97568214E-01
  0.11287920E-01 -0.45958821E-01 -0.17281853E-01 -0.18543912E-01
 -0.10852474E+00 -0.31554475E-01 -0.29181829E-01 -0.35038237E-01
 -0.30168425E-01  0.12917518E-01  0.94219148E-02  0.38543739E-02
 -0.17429788E-01  0.97568274E-01  0.17038137E+00 -0.22542167E-02
 -0.68581281E-02 -0.16812028E-01  0.67123890E-01 -0.14856837E-01
  0.52298281E-01 -0.10310155E+00 -0.40235251E-01 -0.89705512E-02
  0.38926873E-01 -0.10838484E-02 -0.16985072E+00  0.76311469E-01
  0.69150594E-02 -0.63182632E-02 -0.48873704E-01 -0.22341227E-01
  0.31494450E-01 -0.74725710E-02 -0.32325108E-01  0.47166054E-02
  0.15750036E-01  0.19931331E-01  0.61885417E-02 -0.89711547E-02
 -0.22252218E-02 -0.13308422E+00  0.20251691E-01 -0.45145787E-02
  0.35775512E-01 -0.10440513E-01  0.63793063E-01  0.43009203E-01
 -0.34634177E-01 -0.14203521E-01  0.64703189E-02 -0.13139684E-01
 -0.32075319E-01 -0.19045236E-01 -0.12680903E-01 -0.13717169E+00
  0.29166546E-02  0.11035413E-01  0.24293682E-01  0.25893958E-01
 -0.13120286E-02 -0.17062493E-01 -0.69651455E-02  0.15115199E-01
 -0.12452926E-01 -0.28048914E-01 -0.81404559E-02  0.14331407E-01
  0.12644854E-01  0.24846906E-01 -0.53721447E-01  0.16348705E-01
  0.18280597E-01 -0.24520377E-01 -0.36987716E-02  0.18260546E-01
 -0.72437376E-02  0.14151404E-01 -0.22939686E-01  0.24036893E-02
  0.15635625E-01  0.12054205E-01  0.11425201E-01  0.64702690E-01
 -0.10536325E+00  0.15012829E-01 -0.28842267E-01  0.11042486E-01
  0.13311167E-01 -0.21481493E-02  0.73922765E-02 -0.16001925E-01
  0.10468613E-01 -0.66283117E-02 -0.15343137E-02 -0.30380553E-01
 -0.51950179E-02 -0.93821883E-02  0.29672762E-01  0.30377176E-01
  0.16042329E-01 -0.11458546E-01 -0.95287338E-02  0.13136099E-01
  0.89334697E-02 -0.17647017E-01 -0.20479793E-02  0.17140292E-01
  0.84415445E+01  0.26355565E-01  0.16610388E+00  0.69635034E-01
  0.77834213E-02 -0.25760174E-01 -0.21441121E-01  0.21861905E-01
 -0.43986645E-01  0.11674736E-01  0.56952271E-02  0.28399110E-01
 -0.13653144E-01 -0.68217134E+00 -0.62160009E+00  0.28212482E+00
 -0.24901919E+00  0.21900196E+00  0.24887720E-01  0.72718799E-01
 -0.13336080E+00 -0.78881800E-01  0.14562243E+00  0.74521363E-01
 -0.27514609E-01  0.10257621E+00  0.17437777E+02  0.79321623E+00
 -0.35100784E+01  0.84811635E-01  0.70552409E-01  0.47351521E+00
  0.83660275E+00 -0.47608501E+00  0.52839464E+00 -0.69492757E-02
 -0.20629799E+00 -0.32985032E+00  0.31779462E+00 -0.81596584E+01
  0.80805292E+01  0.59097290E+01  0.42979136E+01 -0.42025328E+01
 -0.14056301E+01 -0.12244358E+01  0.21699388E+01  0.52206904E+00
 -0.24186172E+01 -0.21609974E+01  0.93807650E+00 -0.84871125E+00
 -0.89978989E+02 -0.97939730E+01  0.20942673E+02 -0.55313463E+01
 -0.76858730E+01 -0.21651819E+00 -0.45114717E+01  0.38345079E+01
 -0.16243830E+01 -0.89623278E+00  0.11692477E+01  0.93201983E+00
 -0.17749968E+01  0.10546337E+03 -0.44166641E+02 -0.43876999E+02
 -0.16669218E+02  0.34683044E+02  0.49835873E+01  0.66487484E+01
 -0.12427213E+02 -0.19051714E+01  0.11908665E+02  0.12564395E+02
 -0.36486397E+01  0.21449242E+01  0.13710805E+03  0.36479843E+02
 -0.52778606E+02  0.21492037E+02  0.30154282E+02 -0.53919773E+01
  0.90821171E+01 -0.11428968E+02  0.14775457E+01  0.36835520E+01
 -0.33135941E+01 -0.38186175E+00  0.41576309E+01 -0.28806177E+03
  0.10074990E+03  0.97997742E+02  0.22048018E+02 -0.10003944E+03
 -0.56709032E+01 -0.15209171E+02  0.29163038E+02  0.34512577E+01
 -0.24924685E+02 -0.28658508E+02  0.41394587E+01 -0.29731121E+01
 -0.92897736E+02 -0.49600414E+02  0.61100555E+02 -0.29214355E+02
 -0.39369938E+02  0.10823677E+02 -0.76445942E+01  0.13982789E+02
  0.32520753E+00 -0.46346092E+01  0.43214626E+01 -0.86068255E+00
 -0.42901001E+01  0.30256931E+03 -0.99049271E+02 -0.91175781E+02
 -0.90334120E+01  0.11542466E+03  0.17341843E+01  0.15239948E+02
 -0.29818981E+02 -0.28255908E+01  0.23323517E+02  0.28412249E+02
 -0.63854128E+00  0.26830738E+01  0.24605698E+02  0.22045197E+02
 -0.26002684E+02  0.13213135E+02  0.16756653E+02 -0.57091603E+01
  0.22745018E+01 -0.59658084E+01 -0.66697085E+00  0.18124435E+01
 -0.19950207E+01  0.59119934E+00  0.16144733E+01 -0.11073075E+03
  0.35112747E+02  0.30812073E+02 -0.38981721E+00 -0.46086624E+02
  0.31463283E+00 -0.55018597E+01  0.11076973E+02  0.82669550E+00
 -0.80218763E+01 -0.10252826E+02 -0.76681519E+00 -0.11369582E+01
 -0.24553838E+00  0.17193546E+01  0.16381207E+01  0.33417907E-01
 -0.87884717E-01 -0.44835400E-01  0.15925823E-02  0.49698550E-01
 -0.38588453E-01 -0.72526671E-02  0.15999505E-01  0.17281707E-01
 -0.23321385E-01  0.24167126E+00 -0.16023282E+01  0.16606359E+01
 -0.45682009E-01  0.11704248E+00 -0.18465981E-01  0.11106690E-01
 -0.60868156E-02  0.61217647E-01 -0.20567151E-01  0.24912482E-01
 -0.28536350E-01  0.29306823E-01 -0.10224924E+01  0.14925385E+01
 -0.19260072E+01  0.61678416E+00  0.13985469E-01  0.10479474E+00
 -0.49587525E-02 -0.18433392E+00  0.11050397E+00  0.21527071E+00
  0.22213718E+00  0.34993716E-01  0.57391059E-01  0.10419741E+01
  0.66445446E+00  0.14948959E+01  0.38029805E-01  0.27230132E+00
  0.42719603E+00 -0.11771202E+00  0.30687600E+00  0.19784188E+00
  0.22538269E+00  0.75966723E-01  0.23985883E-01  0.45384716E-01
  0.53208241E+01  0.75190625E+01 -0.22172489E+01 -0.12778753E+00
  0.56682128E-01  0.18827895E+01  0.72104901E+00 -0.80092144E+00
  0.77964389E+00 -0.24134894E+00 -0.46352601E+00  0.28311205E+00
  0.10742378E+01 -0.41045361E+01  0.57498436E+01  0.83945713E+01
  0.23423395E+01 -0.14150887E+01 -0.54918945E+00 -0.10221730E+01
  0.26822233E+00 -0.12929888E+01  0.97145742E+00 -0.42177844E+00
  0.68537557E+00 -0.58753097E+00  0.14998869E+02 -0.16657776E+02
  0.37549648E+02 -0.95424938E+01 -0.54443727E+01 -0.14911755E+01
  0.17992316E+01  0.51960621E+01  0.45644292E+00 -0.39563313E+01
 -0.49043798E+01  0.12105608E+00  0.70748419E+00 -0.60123096E+01
  0.27362640E+01 -0.13724413E+02  0.12894964E+01 -0.14900352E+02
 -0.52518587E+01  0.34944668E+01 -0.55088911E+01 -0.13576546E+01
 -0.56548223E+01 -0.14211197E+01 -0.34091592E+00  0.21933842E+00
 -0.29305420E+02  0.13374522E+02  0.44242214E+02  0.50953374E+01
  0.65631723E+01 -0.14111627E+02 -0.65622888E+01  0.39515305E+01
 -0.34545364E+01 -0.12505513E+00  0.29348438E+01 -0.32276695E+01
 -0.90113602E+01  0.43037155E+02 -0.89085815E+02  0.11644013E+02
 -0.24075850E+02  0.19164948E+02  0.77643185E+01  0.86020861E+01
 -0.46943693E+01  0.93667440E+01 -0.74655390E+01  0.14679497E+01
 -0.47342939E+01  0.18102797E+01 -0.85623062E+02  0.92817032E+02
 -0.23375591E+03  0.44671661E+02  0.45343353E+02  0.83043785E+01
 -0.13587066E+02 -0.29296478E+02 -0.10942898E+02  0.20286390E+02
  0.29787081E+02 -0.44528884E+00 -0.79419894E+01 -0.14370024E+02
 -0.23429794E+02  0.72968765E+02 -0.15687455E+02  0.10109999E+03
  0.26097258E+02 -0.26932781E+02  0.35635757E+02 -0.34211284E+00
  0.35934021E+02  0.61775665E+01  0.22777040E+01 -0.23924465E+01
  0.57428692E+02 -0.17855730E+03 -0.15708559E+03 -0.22408585E+02
 -0.40592300E+02  0.40333130E+02  0.14209915E+02 -0.89817619E+01
  0.57742748E+01  0.57205849E+01 -0.63581610E+01  0.10133679E+02
  0.26636444E+02 -0.14794978E+03  0.30004443E+03 -0.19929816E+03
  0.84621689E+02 -0.69814255E+02 -0.29103546E+02 -0.25958649E+02
  0.20315399E+02 -0.28830307E+02  0.23460480E+02 -0.31325626E+01
  0.13810138E+02 -0.21702385E+01  0.23797343E+03 -0.23116394E+03
  0.57393115E+03 -0.83598206E+02 -0.12368262E+03 -0.19707596E+02
  0.34384033E+02  0.70111160E+02  0.39034546E+02 -0.41825333E+02
 -0.75330429E+02 -0.22089806E+01  0.25101608E+02  0.10284250E+03
  0.69117165E+02 -0.15603967E+03  0.39777985E+02 -0.25606177E+03
 -0.60250473E+02  0.77766205E+02 -0.99222702E+02  0.16326080E+02
 -0.91901978E+02 -0.83012600E+01 -0.85460234E+01  0.51328115E+01
 -0.39939331E+02  0.31202097E+03  0.21929730E+03  0.33807739E+02
  0.73635208E+02 -0.49816437E+02 -0.86225977E+01  0.10290630E+02
 -0.33790236E+01 -0.12311238E+02  0.48300257E+01 -0.12229669E+02
 -0.32109085E+02  0.20875217E+03 -0.39679617E+03  0.38521729E+03
 -0.12168415E+03  0.91634491E+02  0.41888866E+02  0.34228809E+02
 -0.33702576E+02  0.39293411E+02 -0.32169022E+02  0.41854286E+01
 -0.18185410E+02  0.11737413E+01 -0.29656149E+03  0.26091187E+03
 -0.63637988E+03  0.62630615E+02  0.13731348E+03  0.20191544E+02
 -0.35748489E+02 -0.76228577E+02 -0.50450878E+02  0.36267136E+02
  0.83756058E+02  0.57476339E+01 -0.32509537E+02 -0.15768517E+03
 -0.66360428E+02  0.12792125E+03 -0.30300962E+02  0.27846167E+03
  0.64009613E+02 -0.94658722E+02  0.12312605E+03 -0.32563568E+02
  0.10454442E+03  0.17428436E+01  0.15118476E+02 -0.33578806E+01
  0.47491131E+01 -0.15489162E+03 -0.10394128E+03 -0.16034286E+02
 -0.40621124E+02  0.22269806E+02 -0.31044567E+00 -0.47275257E+01
  0.55015851E-01  0.71959567E+01 -0.86488312E+00  0.50432906E+01
  0.13676483E+02 -0.10171487E+03  0.18161351E+03 -0.21165050E+03
  0.60878799E+02 -0.37977203E+02 -0.20529877E+02 -0.16520399E+02
  0.18732544E+02 -0.19229507E+02  0.15826123E+02 -0.22000673E+01
  0.87317457E+01 -0.31610501E+00  0.13370317E+03 -0.11240936E+03
  0.26245117E+03 -0.15337643E+02 -0.54398441E+02 -0.74560556E+01
  0.13048157E+02  0.30778091E+02  0.21956057E+02 -0.10538048E+02
 -0.33810028E+02 -0.32820206E+01  0.14922836E+02  0.75884064E+02
  0.17452682E+02 -0.31479095E+02  0.36800354E+01 -0.11180383E+03
 -0.25325594E+02  0.41215775E+02 -0.55677883E+02  0.18475765E+02
 -0.44003677E+02  0.18647232E+01 -0.90560856E+01  0.22126120E+00
  0.59121013E-01 -0.38882449E-01  0.10154724E+00 -0.99066651E+00
  0.50862730E+00  0.37865343E-02 -0.13369664E-01 -0.14525890E-01
  0.73863156E-02 -0.30057948E-01  0.92732534E-02 -0.24269309E-01
  0.67565669E-02 -0.24163933E-01 -0.20808218E+00  0.18645235E-02
 -0.51261657E+00 -0.78584695E+00 -0.29707689E-01 -0.29643602E-02
 -0.43101724E-01  0.92033185E-02 -0.20032544E-01  0.12454584E-01
 -0.10859430E-01  0.14212402E-01 -0.20849438E+00  0.50730854E+00
  0.54870909E+00  0.17681437E+01 -0.10749121E+01  0.42078009E+00
 -0.26223654E+00  0.33963424E+00  0.82626760E-01  0.92897773E-01
 -0.60189378E-01 -0.76034248E-01  0.18571980E-01  0.42013159E+00
  0.22726026E+00  0.90818739E+00  0.16409397E+01  0.20787294E+01
  0.16166554E+00  0.25318128E+00  0.91371487E-03 -0.12026191E+00
  0.11957009E-01 -0.17968930E-01  0.20824528E+00  0.10581684E+00
  0.18979920E+01  0.71559250E-01  0.89219481E+00 -0.64803618E+00
  0.19108591E+01  0.61305545E-01 -0.76099986E+00  0.66523035E-02
  0.38209528E+00 -0.37404040E+00 -0.24693862E-01 -0.15020820E-01
 -0.21455880E+00  0.42901478E+01  0.27137222E+01  0.18731354E+01
 -0.25761659E+01 -0.37876692E-01  0.42818055E+00 -0.39081347E+00
  0.64281893E+00  0.43348353E-01  0.28045839E+00 -0.51489580E-01
  0.33649015E+00  0.13021857E+00  0.61204880E+00 -0.18564699E+01
 -0.39929545E+01  0.96122265E-01  0.16075821E+01 -0.39626312E+01
  0.11777745E+01 -0.33050480E+01 -0.11639585E+01 -0.89641190E+00
  0.77148658E+00  0.10184776E+01  0.13489574E+00 -0.77427745E+01
 -0.11954880E+01 -0.10486696E+02 -0.58320413E+01 -0.18617257E+01
  0.74399310E+00 -0.28453026E+01 -0.58667111E+00  0.11166002E+01
 -0.77045226E+00  0.64419031E+00 -0.96420515E+00 -0.97287250E+00
 -0.14225009E+02  0.82643967E+01 -0.12470506E+02  0.23383013E+02
 -0.65144606E+01  0.16238860E+01  0.87209654E+01  0.49000901E+00
 -0.16810759E+01  0.40386553E+01 -0.54124254E+00  0.10109008E+00
  0.19018240E+01 -0.21727478E+02 -0.96902895E+01 -0.16478348E+02
  0.13098321E+02  0.13914477E+02 -0.20104990E+01  0.37096815E+01
 -0.27436788E+01 -0.43885440E-01 -0.13556918E+01  0.84448802E+00
 -0.14343556E+01 -0.20107963E+01 -0.89594126E+00  0.10083542E+01
  0.83134680E+01 -0.92639046E+01  0.61116381E+01  0.10380750E+02
 -0.26651859E+01  0.87228279E+01  0.38335390E+01  0.22555151E+01
 -0.13236303E+01 -0.31068850E+01 -0.87246406E+00  0.23570585E+02
 -0.42556524E+01  0.28354004E+02  0.33738232E+01 -0.40777321E+01
 -0.38387177E+01  0.82230272E+01  0.30383513E+01 -0.22789021E+01
  0.26750422E+01 -0.16830760E+01  0.11110401E+01  0.25620413E+01
  0.29727598E+02 -0.24605181E+02  0.28340712E+02 -0.59987549E+02
 -0.22684789E+00 -0.73963881E+01 -0.18819960E+02 -0.99585783E+00
  0.24640312E+01 -0.93489466E+01  0.17905922E+01  0.29973716E+00
 -0.48281689E+01  0.32501541E+02  0.18787916E+02  0.36723724E+02
 -0.15535309E+02 -0.37230057E+02  0.20521288E+01 -0.89159498E+01
  0.26074266E+01 -0.13309879E+01  0.20207710E+01 -0.26565914E+01
  0.20663900E+01  0.51164732E+01 -0.40171736E+00  0.11958818E+01
 -0.70398545E+01  0.46672316E+01 -0.12406042E+02 -0.77181606E+01
  0.25220160E+01 -0.60711083E+01 -0.32043295E+01 -0.13135966E+01
  0.27531666E+00  0.25722663E+01  0.94680882E+00 -0.20347057E+02
  0.94924231E+01 -0.21017029E+02  0.51578903E+01  0.91074467E-01
  0.31714413E+01 -0.65355902E+01 -0.32284212E+01  0.13073930E+01
 -0.20606012E+01  0.10267878E+01 -0.13762021E+00 -0.18398627E+01
 -0.18292114E+02  0.18030378E+02 -0.15053248E+02  0.42048477E+02
  0.93764210E+01  0.66455445E+01  0.11065763E+02  0.21237044E+00
 -0.12657824E+01  0.58830404E+01 -0.11597252E+01 -0.38042432E+00
  0.34563768E+01 -0.12867410E+02 -0.16812653E+02 -0.25532944E+02
  0.17166662E+01  0.26918318E+02 -0.10111469E+00  0.59210205E+01
  0.11573965E+00  0.15903759E+01 -0.98362416E+00  0.20214052E+01
 -0.12598085E+01 -0.36495936E+01  0.28310280E-01  0.48973434E-01
 -0.48619840E-01 -0.72511435E-01  0.58058463E-02 -0.57069099E+00
 -0.71659225E+00 -0.18692103E-02  0.42772561E-01 -0.31100756E-01
  0.13589856E-01 -0.41641407E-01 -0.74718855E-02 -0.28761314E-01
 -0.29289359E+00 -0.91049314E-01  0.28099608E-01 -0.29132953E-01
  0.69334489E+00 -0.55960542E+00 -0.21222346E-01  0.24635846E-01
  0.21211594E-01 -0.15531605E-02  0.26932615E-02  0.16090751E-01
  0.20954397E+00  0.73779237E+00 -0.42621493E+00 -0.23507123E+00
 -0.37294063E+00  0.17519321E+00  0.57431798E-01 -0.47046978E-01
  0.15076197E-01 -0.54287310E-02  0.58389843E-01 -0.86825848E-01
 -0.17713912E-01 -0.23256958E+00 -0.20628646E+00  0.74116595E-01
  0.43207303E-01 -0.11664170E+00 -0.47020309E-01  0.75928099E-01
 -0.98211229E-01  0.93043054E-03  0.55244021E-01 -0.46837240E-01
 -0.95012747E-02 -0.13064935E-01  0.87182951E+00  0.98459274E-02
  0.13477668E+01  0.84805556E-01 -0.90552866E-01  0.11711704E+01
  0.11748554E+01 -0.12035686E+00  0.12323439E+00  0.49199241E+00
 -0.20814493E+00  0.27044243E+00 -0.61024815E-01 -0.74558854E-01
  0.37783556E+01 -0.26144075E+00  0.38623143E-01  0.53248072E+00
 -0.10437832E+01  0.90481395E+00 -0.44594193E+00 -0.40208292E+00
 -0.60124952E-01 -0.48902173E-01 -0.11441463E+00 -0.19880746E+00
 -0.13543634E+01 -0.10415508E+01  0.12016993E+01  0.31708425E+00
  0.61210239E+00  0.58425146E+00  0.41064873E+00  0.33918124E+00
  0.11345341E-01  0.93263805E-01 -0.17820966E+00  0.18072976E+00
  0.96731901E-01  0.32778770E+00  0.61795223E+00  0.38936529E-01
 -0.50377148E+00  0.31532276E+00 -0.38423324E+00  0.74498862E+00
  0.17342278E+00  0.20069090E+00 -0.13456015E+00  0.16104507E+00
  0.72342455E-01  0.79420209E-01 -0.31249225E+00  0.92828918E+00
 -0.26748800E+01  0.70246696E-01  0.58934122E+00 -0.16105404E+01
 -0.14977303E+01 -0.18931707E-01 -0.31899458E+00 -0.82864493E+00
  0.36326492E+00 -0.42674008E+00 -0.46573725E-01  0.81409037E-01
 -0.52734642E+01  0.76651889E+00 -0.32308716E+00 -0.10347863E+01
  0.13800039E+01 -0.11256924E+01  0.89915174E+00  0.71173912E+00
  0.48457179E-01  0.25199080E+00  0.14797407E+00  0.20402832E+00
  0.24246462E-01  0.33298828E-01 -0.51717691E-01 -0.14058649E-01
  0.17725911E-01 -0.72037079E-03 -0.37894547E-02  0.30802149E+00
 -0.16611564E+00 -0.17199373E-01  0.13114574E-01 -0.76011159E-02
 -0.20986781E-01  0.43441541E-01  0.33683836E-01 -0.34691116E-02
  0.59443176E-01 -0.51950086E-01  0.14247886E-01 -0.17108586E-01
  0.14792424E+00  0.28507859E+00  0.35790652E-02  0.32111527E-02
  0.13911074E-02 -0.73967534E-02 -0.19056962E+00 -0.73565207E-02
 -0.24821372E+00  0.15964326E-01 -0.97779870E-01 -0.89113951E-01
  0.58998287E-01  0.14977662E+00  0.37016943E+00 -0.46572644E-01
 -0.31782843E-01 -0.32574493E-02  0.12899465E-01  0.37356037E+00
  0.15084849E+00 -0.12477553E+00  0.29166045E-01  0.21163246E+00
 -0.11922066E+00 -0.11764957E+00 -0.38922527E+00  0.26210438E-01
  0.71545690E-02 -0.61420333E-01 -0.20083403E-01 -0.11609334E-01
 -0.15726326E+00  0.20085620E-01 -0.33992976E-01 -0.16686320E-01
 -0.15578195E-01 -0.89996755E-02  0.52281570E-01  0.24140202E-01
 -0.13938871E-01  0.15512536E+00  0.19358248E+00  0.49229488E-02
 -0.39371625E-02  0.14834774E+00  0.25739465E-01 -0.83402753E-01
  0.18065710E-01 -0.55616297E-01 -0.52165310E-02 -0.17087545E-01
  0.21788113E-01  0.38194988E-01 -0.19343592E+00  0.16540504E+00
 -0.46783765E-02 -0.27857190E-01  0.57891987E-01 -0.67955375E-01
  0.42646248E-01  0.22683810E-01  0.79109445E-02  0.28160235E-01
 -0.27141113E-01  0.41366830E-01 -0.74150306E-02  0.70931390E-02
 -0.23410007E-01 -0.12303041E+00  0.72064400E-01  0.10394366E+00
  0.57514329E-01 -0.21865280E-01  0.21552902E-02  0.56937981E-01
 -0.20307321E-02  0.91909728E-03 -0.14761716E-01  0.11957444E-01
 -0.14504174E-01 -0.67575313E-02 -0.97156227E-01 -0.12803578E+00
 -0.39362207E-01 -0.32046013E-01 -0.55135116E-02  0.48773900E-01
  0.35422139E-01 -0.15434347E-01 -0.21533076E-01  0.26582325E-01
 -0.12274753E-01 -0.12937960E-01 -0.11175703E-01  0.53416751E-02
  0.67404471E-02  0.73514342E-01 -0.38842116E-01  0.64909101E-01
  0.56321882E-02 -0.52885335E-01  0.41649379E-01 -0.11770998E-02
 -0.26402391E-01  0.25709884E-01 -0.13926197E-02  0.27511721E-01
  0.84407143E-02  0.18437805E-01  0.43839954E-01  0.51004350E-01
 -0.11362994E+00 -0.25646823E-01 -0.38826078E-01 -0.55158506E-02
  0.62045269E-02 -0.30429460E-01  0.18208280E-01 -0.11582434E-01
  0.17949350E-01 -0.15534251E-01  0.51459926E-03 -0.43065984E-01
  0.55039488E-02  0.27189229E-02  0.13957473E-01  0.87091923E-01
  0.10603104E-01  0.77987829E-03 -0.24959501E-02  0.29643334E-01
  0.11370152E-01 -0.18617269E-01 -0.15555474E-01  0.15270163E-01
  0.30766916E+01 -0.92550144E-02  0.13718505E-01  0.25895585E-02
  0.33574877E-03  0.78745298E-02  0.86438507E-02 -0.60896240E-02
 -0.74246735E-03 -0.50321388E+00  0.22363435E-01  0.60551178E-01
  0.54579627E-01 -0.33105437E-01 -0.27306169E-01 -0.16869431E-01
 -0.11755095E-01  0.34014808E-02  0.10928850E+01  0.24034417E+00
 -0.11382687E+00 -0.20328370E+00 -0.24367245E-01 -0.92177808E-01
 -0.59212130E-01  0.92386246E-01  0.51138066E-02  0.11338215E+01
 -0.36324251E+00 -0.20184083E+00 -0.19428016E+00  0.12432438E+00
  0.92264712E-01  0.44125549E-01  0.36674649E-01  0.35087096E-02
 -0.19719752E+01 -0.64643306E+00  0.26046556E+00  0.49098557E+00
  0.92803188E-01  0.28286201E+00  0.15693867E+00 -0.19568926E+00
 -0.20824329E-02 -0.74346590E+00  0.34690487E+00  0.19643436E+00
  0.14222167E+00 -0.96713357E-01 -0.67438841E-01 -0.23977172E-01
 -0.20441961E-01 -0.10335058E-01  0.92457843E+00  0.46374899E+00
 -0.11210352E+00 -0.29201841E+00 -0.79533815E-01 -0.21276262E+00
 -0.10755366E+00  0.10385716E+00 -0.11526104E-02  0.57956646E-03
 -0.12857878E+00 -0.37720931E+00  0.71668397E-02 -0.15985873E-01
  0.35551095E-02 -0.34057419E-03  0.14429940E-04  0.77074170E-02
  0.16609099E-01  0.39636007E+00 -0.11226578E+00 -0.17938472E-01
  0.14924302E-01 -0.20589654E-02 -0.79512075E-02  0.89895213E-04
  0.10084794E-01 -0.84668092E-01  0.76170862E-01  0.11493010E+00
  0.58139656E-01 -0.90520024E-01 -0.49981792E-01 -0.52669298E-01
  0.67823976E-02  0.27890798E-01  0.11318666E+00 -0.73709130E-01
  0.20983377E-01 -0.12963883E-01  0.24992185E-01 -0.32588849E-02
  0.19097015E-02  0.37765734E-01  0.79129219E-01  0.79023778E-01
  0.42699623E+00  0.21301763E+01 -0.24369004E+00 -0.14716792E+00
 -0.96097715E-01 -0.25467388E-01  0.65074682E-01 -0.70087485E-01
 -0.67493325E+00 -0.20482521E+01  0.44933867E+00  0.34022969E+00
 -0.98558962E-01  0.39792754E-01  0.53783190E-01 -0.29130094E-03
 -0.84323883E-01  0.10565310E+01 -0.90792561E+00 -0.15945406E+01
  0.52398432E-01  0.60421151E+00  0.41048068E+00 -0.23732610E-01
  0.20138574E+00 -0.27786821E+00 -0.57795197E-01  0.20736561E+01
 -0.39351201E+00  0.12668329E+00  0.84951341E-01  0.28178252E-01
 -0.23711748E-01 -0.16345517E+00 -0.57944143E+00 -0.20411162E+00
 -0.13376069E+00 -0.29449091E+01  0.41258937E+00  0.56290030E+00
  0.31165558E+00  0.20544071E+00 -0.21796124E+00  0.47752850E-01
  0.20179319E+01  0.24129703E+01 -0.70617998E+00 -0.83160406E+00
  0.22868299E+00 -0.11227274E+00 -0.42454861E-01 -0.91994762E-01
  0.24011090E+00 -0.28024795E+01  0.13774414E+01  0.36972826E+01
 -0.59003937E+00 -0.13606595E+01 -0.84793621E+00  0.57913697E+00
 -0.74747223E+00  0.55327827E+00 -0.22295162E+00 -0.52054844E+01
  0.60161120E+00 -0.30097675E+00 -0.41190425E+00 -0.10745585E+00
 -0.66798508E-01  0.33825681E+00  0.10680361E+01  0.27225357E+00
 -0.13481599E+00  0.12781667E+01 -0.17782263E+00 -0.43654695E+00
 -0.28031033E+00 -0.21654990E+00  0.18418586E+00  0.50952472E-01
 -0.13763980E+01 -0.62647808E+00  0.42017716E+00  0.53561598E+00
 -0.22507682E+00  0.83096325E-01 -0.32817584E-01  0.12693737E+00
 -0.21098840E+00  0.21004000E+01 -0.19308668E+00 -0.28420036E+01
  0.45582685E+00  0.97629905E+00  0.47537670E+00 -0.57095110E+00
  0.58855778E+00 -0.29641420E+00  0.67884624E-01  0.40048332E+01
 -0.36370400E-01  0.15666211E+00  0.35521013E+00  0.11299831E+00
  0.86527765E-01 -0.22095659E+00 -0.55126411E+00 -0.88387989E-02
 -0.10312353E-01 -0.61113387E-02 -0.20343255E-01 -0.15003508E+00
 -0.10647349E-01 -0.78879832E-03  0.66963257E-03 -0.76038609E-02
  0.41395649E-02 -0.34112085E-02  0.10996495E-01  0.17316753E+00
 -0.10291021E-01 -0.73754783E-02 -0.14292508E-01 -0.21934167E-02
  0.18509438E-02  0.63759446E-01  0.23891982E+00  0.63553929E-01
  0.18635046E+00 -0.57529557E+00  0.23344532E-01 -0.40877603E-01
  0.17844955E-01 -0.39308965E-01 -0.51171143E-01  0.10197276E+00
  0.71252692E-02  0.72727478E+00  0.15855432E+00  0.49558837E-01
 -0.45434017E-01 -0.18780006E-01  0.50435401E-02  0.15530049E-01
  0.14170408E+00 -0.61096840E-01 -0.37090287E-01 -0.10134679E+00
  0.43753274E-01  0.16147133E-01  0.11646986E-01  0.15542092E-01
 -0.36590865E+00 -0.32496876E-02 -0.23358014E+00 -0.45408837E-01
 -0.12131417E+00  0.92704952E-01  0.10798854E+00 -0.10122200E-01
  0.33092615E-03 -0.40528268E+00 -0.12369299E+01 -0.24165794E-01
 -0.74351090E+00  0.17940989E+01 -0.18066382E+00  0.10244833E+00
 -0.25582045E-01  0.19211511E+00  0.76301038E+00 -0.20792606E+00
  0.27201289E+00 -0.23394878E+01 -0.62358558E+00 -0.24235266E+00
  0.63761294E-01  0.15015984E+00 -0.11706613E+00 -0.10061765E+00
 -0.37011161E+00  0.14104468E+00 -0.26392072E-01  0.25978976E+00
  0.53946935E-02  0.15027907E-01 -0.45017201E-01  0.68766950E-03
  0.53705126E+00 -0.14921010E+00  0.35961419E+00 -0.32242209E-01
  0.42051267E-01 -0.12954605E+00 -0.89045286E-01  0.19702056E-04
 -0.23211282E-01  0.49777216E+00  0.15834332E+01  0.39794613E-01
  0.63238031E+00 -0.15466079E+01  0.28480631E+00 -0.73767781E-01
  0.22335306E-01 -0.21944924E+00 -0.12544603E+01  0.71595192E-01
 -0.24489100E+00  0.20173311E+01  0.51294672E+00  0.28983241E+00
  0.99735081E-01 -0.18368554E+00  0.18341649E+00 -0.42410571E-01
 -0.52171270E-02  0.19085893E-02 -0.95514059E-02  0.75655170E-02
  0.16171316E-01  0.16939322E-01  0.22008177E-02 -0.19602049E-02
 -0.60261190E-02 -0.52024607E-01 -0.89434832E-02  0.10327846E-01
 -0.25033876E-01 -0.14511694E-01  0.23334133E-01 -0.61932355E-02
  0.28024367E-02  0.82942426E-01  0.45942049E-01  0.93686730E-02
 -0.41635599E-01  0.30467380E-01  0.41355919E-01  0.26757888E-01
  0.10544644E-01  0.57960451E-02  0.58556039E-01 -0.45138933E-02
 -0.20666830E-01 -0.21553094E-01  0.11791925E-01 -0.26258837E-01
  0.53928334E-01 -0.11998914E-01  0.21382071E-01  0.77182353E-01
 -0.48827209E-01 -0.91188729E-01  0.14237205E-01 -0.10213550E-01
 -0.94213605E-01 -0.15220273E+00 -0.12513259E-02  0.21464365E-01
 -0.15465500E-01  0.13954590E+00 -0.39753947E-01 -0.45017153E-01
  0.57116091E-01  0.15541756E+00 -0.12666643E+00  0.11608531E-01
  0.80760084E-02 -0.41384090E-01 -0.10227786E-01  0.80588758E-02
 -0.46442333E-02 -0.21833975E-02  0.53496994E-02 -0.68548243E-02
  0.41308586E-01  0.59219897E-02 -0.27170405E-01  0.62266621E-02
 -0.46112244E-02 -0.12002573E-01  0.16872867E-02  0.85898452E-02
  0.16054401E-01 -0.50134766E-02  0.41393559E-01  0.69590509E-01
 -0.37438667E-02  0.20416288E-01 -0.48384883E-01 -0.18482737E-01
 -0.26152562E-03  0.12390666E-01  0.16554862E-01  0.15767444E-01
  0.27102105E-01 -0.50822388E-01  0.19041892E-01  0.45237873E-01
 -0.61440282E-02 -0.86206980E-02 -0.41923299E-02 -0.37406992E-01
  0.99841170E-02 -0.49510780E-02 -0.68882145E-02 -0.39861612E-02
 -0.19369667E-02 -0.11413927E-02  0.49859658E-02 -0.92119947E-02
  0.47657965E-03  0.34508735E-03  0.18523850E-01  0.17887402E-01
 -0.11042764E-01 -0.10345280E-01 -0.11657287E-01  0.51686913E-02
  0.27109303E-02  0.35306653E-02  0.11049249E-02  0.36995022E-02
  0.33790921E-02  0.36772601E-02 -0.24134079E-02 -0.38045824E-02
  0.39723818E-02  0.10341555E-02  0.54815672E-02 -0.16316446E-02
  0.22392916E-01  0.57393680E-02 -0.18493542E-01  0.23872718E-03
  0.48304014E-02 -0.32244367E-03  0.17225274E-02 -0.32498676E-02
 -0.64918445E-03  0.27327433E+01 -0.15785564E-01  0.97018033E-02
  0.48172288E-02 -0.28546432E-02  0.45274906E-02  0.34621272E-02
 -0.15102918E-02 -0.27329123E-02 -0.25903660E+00  0.55780225E-01
  0.65728307E-01  0.32537010E-01 -0.25246155E-01 -0.58772457E-02
 -0.21703180E-01 -0.43969005E-02 -0.69272378E-03  0.11714926E+01
  0.16338734E+00 -0.89373529E-01 -0.10332001E+00  0.13328507E-01
 -0.56765247E-01 -0.25298422E-01  0.44980548E-01  0.17588578E-01
  0.33108097E+00 -0.49494019E+00 -0.18589836E+00 -0.10610254E+00
  0.78505099E-01 -0.88712946E-02  0.33990052E-01  0.10129430E-01
  0.43824990E-02 -0.17302924E+01 -0.27473360E+00  0.17417508E+00
  0.22498930E+00 -0.11839692E-01  0.17832267E+00  0.89640021E-01
 -0.92783153E-01 -0.12903627E-01 -0.15330756E+00  0.43055135E+00
  0.16011506E+00  0.73783815E-01 -0.51124744E-01  0.16581137E-01
 -0.11291336E-01 -0.22684636E-02 -0.43424219E-02  0.63714796E+00
  0.18350784E+00 -0.42438373E-01 -0.12726229E+00 -0.10468658E-01
 -0.13165224E+00 -0.66993177E-01  0.44999924E-01 -0.64978413E-02
  0.79358928E-02 -0.29707021E+00 -0.28992319E+00  0.80166198E-02
 -0.15802495E-01 -0.19063943E-02  0.49845497E-02  0.27219276E-03
  0.67873560E-02  0.62516495E-03  0.32199055E+00 -0.27686161E+00
 -0.15336920E-01  0.17286170E-01  0.12508899E-02 -0.14910121E-01
  0.12231509E-02  0.14304347E-01  0.16834082E-01  0.10278946E+00
 -0.63203812E-01  0.10091762E-01 -0.13688601E-01 -0.95551871E-02
 -0.36618941E-01 -0.14316995E-01  0.35773888E-01  0.76245837E-01
  0.77808857E-01 -0.12024794E-01  0.12149658E-01  0.17534770E-01
  0.12295833E-02 -0.60971715E-02  0.14225281E-01  0.82393341E-01
 -0.15534864E+00  0.80440158E+00  0.12503366E+01 -0.12217535E+00
 -0.85220754E-01 -0.29276054E-01 -0.48868369E-01  0.28717836E-01
 -0.10331118E+00 -0.52347875E+00 -0.13314190E+01  0.89782566E+00
  0.28488898E+00 -0.12012095E+00 -0.21137984E-01  0.12435998E+00
 -0.14031794E-01 -0.16417257E+00  0.76694369E-01 -0.93182552E+00
  0.25457191E+00  0.19702049E+00  0.48383988E-01  0.41341368E-01
 -0.14367602E-01  0.36359435E+00 -0.25973445E+00  0.16930664E+00
  0.43561879E+00  0.67502439E-01 -0.75919390E-01 -0.20566436E-01
  0.45070466E-01  0.74356914E-01 -0.47366299E-01 -0.56628042E+00
  0.58145106E+00 -0.34549737E+00 -0.13091030E+01  0.17559958E+00
  0.43319136E+00  0.16244149E+00  0.20602816E+00 -0.41776557E-01
  0.30710989E+00  0.17932119E+01  0.97565877E+00 -0.11525728E+01
 -0.74104398E+00  0.24997143E+00  0.52191269E-01 -0.24265368E+00
 -0.61648171E-01  0.39528716E+00 -0.39080113E+00  0.15962687E+01
 -0.17618662E+00 -0.74545741E+00 -0.20102000E+00 -0.15913906E-01
  0.36910927E+00 -0.10008821E+01  0.41477209E+00 -0.10000010E+01
 -0.15626554E+01 -0.33813745E+00  0.20472082E+00  0.47138080E-01
 -0.14620388E+00 -0.33509135E+00  0.74930072E-01  0.10780277E+01
 -0.40786567E+00  0.21695097E-02  0.61571985E+00 -0.87222397E-01
 -0.40252179E+00 -0.18569058E+00 -0.16891396E+00  0.19968780E-01
 -0.22394384E+00 -0.13754948E+01 -0.63793473E-02  0.60612941E+00
  0.53394854E+00 -0.20959119E+00 -0.59920955E-01  0.10459417E+00
  0.97062886E-01 -0.27976453E+00  0.39142889E+00 -0.65925485E+00
 -0.55752856E+00  0.61146140E+00  0.21277002E+00 -0.66732585E-01
 -0.38353372E+00  0.67082864E+00 -0.16077600E+00  0.87837434E+00
  0.18233117E+01  0.43625030E+00 -0.18887997E+00 -0.19754048E-01
  0.14874178E+00  0.31835014E+00 -0.25374442E-01 -0.59807527E+00
 -0.35858254E-02 -0.18426420E-01  0.11940398E-01  0.35249285E-01
 -0.11406702E+00 -0.12094729E-01  0.12369561E-02  0.28486019E-02
 -0.41241129E-02 -0.44571534E-02 -0.12385954E-01  0.10621492E-01
  0.11439824E+00  0.52063726E-01 -0.31545041E-02 -0.91192275E-02
 -0.23166044E-02  0.18062956E-02  0.77467859E-01  0.19298267E+00
  0.57610348E-02  0.17876282E+00 -0.28498143E+00  0.33583447E-01
 -0.21250667E-02  0.40939935E-02 -0.17955484E-01  0.18605867E-01
  0.88920891E-01 -0.16398907E-01  0.37881327E+00  0.19283798E+00
  0.35964753E-01 -0.57503371E-03 -0.16725548E-01  0.14335945E-01
 -0.39326932E-01  0.15444148E+00 -0.13056348E+00 -0.27956468E+00
  0.53259443E-01  0.70716918E-01  0.21401592E-01 -0.33642218E-01
  0.21223648E-01 -0.20482560E+00  0.36653720E-01 -0.11544806E+00
 -0.96398294E-01 -0.40236861E+00  0.14114499E-01  0.74856639E-01
  0.13251967E-01  0.58944188E-02 -0.22919863E+00 -0.93992049E+00
  0.22374582E+00 -0.53515434E+00  0.77677137E+00 -0.16614509E+00
 -0.86691082E-01  0.29328510E-01  0.12252356E+00  0.30133855E+00
 -0.19458070E+00  0.14997202E+00 -0.10709429E+01 -0.48711556E+00
 -0.11093742E+00 -0.55874564E-01  0.11211872E+00 -0.14200687E+00
  0.17139060E-01 -0.40209785E+00  0.19722579E+00  0.75891197E-01
 -0.96643448E-01 -0.82315326E-01 -0.36470420E-02  0.47883753E-01
 -0.17165303E-01  0.32197589E+00 -0.29618835E+00  0.99401414E-01
  0.21706820E+00  0.22001293E+00 -0.53230438E-01 -0.68153203E-01
 -0.20923685E-01 -0.37169997E-01  0.10419929E+00  0.12077618E+01
 -0.25412041E+00  0.44525284E+00 -0.71311611E+00  0.24982084E+00
  0.11983402E+00 -0.38160983E-01 -0.16348416E+00 -0.60997331E+00
  0.27142984E+00 -0.35729647E-01  0.90510237E+00  0.34794796E+00
  0.13886356E+00  0.16090357E+00 -0.10832493E+00  0.19660074E+00
 -0.28633848E-01 -0.51487330E-03  0.12486504E-01 -0.59260279E-02
 -0.30928615E-02  0.16670745E-01 -0.18133428E-01  0.13137638E-02
 -0.29191643E-02 -0.73401630E-02 -0.43932945E-01 -0.60264282E-02
  0.11825814E-01 -0.20122046E-01  0.13404753E-01  0.25719736E-01
 -0.27513450E-02 -0.39640404E-02  0.54108251E-01  0.62069219E-01
  0.32028570E-02 -0.30705711E-01  0.21409197E-01  0.68470776E-01
  0.18883284E-01  0.12196347E-02 -0.59491466E-03  0.44463776E-01
  0.15322218E-02 -0.11973176E-01 -0.23743760E-01  0.23724630E-02
 -0.18886376E-01  0.65881431E-01 -0.61001857E-02  0.12625721E-01
  0.42619128E-01 -0.87218344E-01 -0.71985722E-01  0.61123888E-02
 -0.80230422E-02 -0.94753437E-01 -0.10718405E+00  0.44617010E-03
  0.18477120E-01 -0.49196184E-02  0.10727090E+00 -0.36542349E-01
 -0.19530226E-01  0.29819096E-01  0.11121346E+00 -0.11566353E+00
 -0.12570543E-02  0.71676597E-02 -0.28708642E-01 -0.12917657E-01
  0.10160699E-01 -0.15056654E-02 -0.51682293E-02  0.13105694E-02
 -0.69624786E-02  0.31344190E-01  0.13837169E-01 -0.15254788E-01
  0.17759034E-02 -0.10812398E-01 -0.43772645E-02 -0.18710295E-02
  0.43233000E-02  0.13123616E-01 -0.15094436E-01  0.28170317E-01
  0.47917828E-01  0.23561509E-02  0.78526512E-02 -0.31751979E-01
 -0.63430369E-02 -0.38912457E-02  0.14013789E-01  0.21223187E-01
  0.36825228E-01  0.24586665E-01 -0.54429136E-01  0.31562783E-01
  0.22680202E-01  0.70566143E-03 -0.58405809E-02 -0.98891780E-02
 -0.44559009E-01  0.10059297E-01  0.96068269E-03 -0.11706587E-01
  0.22053521E-02  0.32256655E-02 -0.55763088E-02  0.31189672E-02
 -0.83871558E-02  0.37916497E-03  0.65405341E-03  0.91339238E-02
  0.15419393E-01 -0.98529011E-02 -0.21402466E-02 -0.34411531E-02
  0.44119065E-02  0.64586918E-02  0.16170661E-02  0.65146009E-02
  0.20680721E-02  0.92757791E-02  0.41878447E-02  0.99740503E-03
 -0.10964576E-01  0.11091142E-03  0.14305850E-02  0.14857617E-02
  0.76322770E-03  0.71551842E-02 -0.16748263E-02 -0.11113630E-01
  0.20171816E-02  0.70238672E-02  0.14452585E-02  0.47303335E-03
 -0.38445608E-02  0.29371865E-02
