  0.67417641E+01 -0.11025393E+00  0.42666834E-01  0.69521971E-01
  0.38874121E-02  0.29258804E-01 -0.31417802E-01  0.35931021E-01
  0.11918333E-01  0.29975630E-01  0.11452775E-01 -0.29228495E-01
 -0.76055527E-02  0.17436560E+01  0.40657672E+00  0.59440559E+00
 -0.81161797E-01 -0.12061447E+00 -0.42257652E-01 -0.16804053E-01
 -0.13078284E+00  0.99271536E-01 -0.51369164E-01 -0.85818350E-01
  0.20449582E-01 -0.34776747E-01  0.15906834E+02  0.21122408E+01
 -0.30194511E+01 -0.18164214E+00  0.21544621E+01 -0.77579123E+00
  0.10776815E+01 -0.65275151E+00 -0.18329656E+00 -0.10741081E+01
 -0.21992724E+00  0.54272276E+00  0.26474297E+00 -0.21567720E+02
 -0.10071519E+02 -0.46050444E+01  0.22639153E+01  0.77192554E+01
  0.70966089E+00 -0.21318836E+01  0.47265267E+00 -0.24995821E-01
  0.65379202E+00  0.20589559E+01 -0.17014968E+00  0.56020804E-02
 -0.10173341E+03 -0.68225641E+01  0.18339722E+02 -0.96500959E+01
 -0.22774460E+02  0.70135794E+01 -0.57714853E+01  0.20234108E+01
  0.98741543E+00  0.70813160E+01  0.75227982E+00 -0.31741397E+01
 -0.28904333E+01  0.65307861E+02  0.35732178E+02  0.99326601E+01
 -0.70676718E+01 -0.35474056E+02 -0.48456550E+01  0.10269098E+02
  0.14416780E+01 -0.37578681E+01 -0.17822332E+01 -0.10741420E+02
  0.18747387E+01  0.18222951E+01  0.20845084E+03  0.83894491E+01
 -0.37941158E+02  0.42702358E+02  0.68335434E+02 -0.22162094E+02
  0.11464568E+02 -0.11181593E+01 -0.30024519E+01 -0.17626600E+02
 -0.13377714E+00  0.74559193E+01  0.94865475E+01 -0.69698105E+02
 -0.40740067E+02 -0.12088244E+02  0.55066090E+01  0.60161949E+02
  0.12805877E+02 -0.14906708E+02 -0.69451747E+01  0.13351114E+02
  0.15886545E+01  0.22924709E+02 -0.65486450E+01 -0.64081602E+01
 -0.19967574E+03 -0.47658625E+01  0.32122223E+02 -0.59845806E+02
 -0.79271225E+02  0.26973694E+02 -0.94852962E+01 -0.13761377E+01
  0.42310858E+01  0.18761658E+02 -0.14811944E+01 -0.75402794E+01
 -0.11900676E+02  0.14291371E+02  0.10281889E+02  0.12892766E+02
  0.20141008E+01 -0.43246780E+02 -0.13862740E+02  0.66849308E+01
  0.83780088E+01 -0.16522490E+02 -0.29590267E+00 -0.21744141E+02
  0.82283392E+01  0.76309423E+01  0.74218613E+02  0.12529612E+01
 -0.98135471E+01  0.27000689E+02  0.31554642E+02 -0.11102577E+02
  0.27184379E+01  0.10648203E+01 -0.20641975E+01 -0.71944175E+01
  0.10889817E+01  0.27322817E+01  0.50644026E+01  0.97484446E+01
  0.43847666E+01 -0.68491745E+01 -0.25755978E+01  0.10981910E+02
  0.51441727E+01  0.12638378E+00 -0.31936567E+01  0.68834958E+01
 -0.72948217E-01  0.75957394E+01 -0.34138048E+01 -0.30203905E+01
 -0.17938741E-01  0.19350548E+01  0.15287570E+01  0.26359444E-01
 -0.69553885E-02  0.48199929E-02  0.15078619E-01  0.53562153E-01
  0.21571169E-01  0.32001287E-01  0.37023298E-01 -0.33349071E-01
  0.10461509E-01 -0.71816564E-01 -0.14951200E+01  0.19070234E+01
 -0.90120375E-01  0.83764911E-01 -0.22245713E-01 -0.61692059E-01
  0.29028337E-01 -0.15067049E-03  0.12577566E-01 -0.22862754E-02
  0.29112535E-01 -0.23672458E-01 -0.51051003E+00  0.87592435E+00
  0.11411304E+01  0.22836588E+00  0.10007082E+00 -0.85580871E-02
  0.14482206E+00  0.23493984E+00  0.12527978E+00 -0.16819620E+00
 -0.48568074E-01  0.24008986E+00  0.96231997E-01  0.10973549E+00
  0.93418963E-01 -0.70641696E-01 -0.53768349E+00  0.48843423E+00
  0.34973872E+00 -0.26007724E+00  0.36855582E-01  0.41532868E+00
  0.89809418E-01 -0.23388442E-01  0.20598350E+00  0.13492870E+00
  0.54216433E+01  0.19527588E+02  0.53556571E+01 -0.20208037E+01
  0.27149026E+01  0.11244011E+01 -0.42923164E+00 -0.90001625E+00
 -0.22988825E+00 -0.79169691E+00  0.95905125E-01  0.54770768E+00
  0.40796731E-01 -0.49918337E+01 -0.68213153E+01  0.20141766E+02
  0.33453064E+01  0.20416536E+01 -0.18846659E+00  0.78771967E+00
  0.12231274E+01  0.63756788E+00 -0.58407259E+00 -0.35017231E+00
 -0.12065353E+01 -0.24117196E+00  0.15664848E+02 -0.58232436E+01
  0.16471385E+01 -0.85785646E+01  0.65734749E+01  0.10979424E+01
 -0.61561317E+01 -0.41306419E+01 -0.25767187E-01  0.22381325E+01
  0.16197395E+01 -0.47094784E+01 -0.19486103E+01  0.54404097E+01
 -0.23112684E+02  0.87230244E+01  0.41379757E+01 -0.82567215E+01
 -0.59944475E+00  0.49454794E+01  0.98528087E-01 -0.69704385E+01
 -0.26175516E+01  0.21983194E+01 -0.85137618E+00 -0.48446989E+01
 -0.34786560E+02 -0.13385120E+03  0.53099274E+02  0.98495779E+01
 -0.21858501E+02 -0.12796616E+02  0.21972885E+01  0.71941562E+01
  0.17378720E+01  0.38053648E+01 -0.41692467E+01 -0.43841829E+01
 -0.76313019E+00  0.52958328E+02 -0.62617268E+02 -0.13794220E+03
 -0.20468201E+02 -0.26598705E+02  0.76006281E+00 -0.45324349E+00
 -0.73798919E+01 -0.68499522E+01  0.43220587E+01  0.26352141E+01
  0.11029832E+02  0.39386225E+01 -0.10278555E+03 -0.11709526E+02
  0.43092850E+02  0.72482162E+02 -0.24375425E+02 -0.46230412E+01
  0.37790924E+02  0.18252396E+02  0.32258278E+00 -0.98822689E+01
 -0.65691552E+01  0.26157682E+02  0.14764630E+02 -0.63290562E+02
  0.11773388E+03 -0.50047348E+02 -0.31375059E+02  0.31207626E+02
 -0.13806310E+02 -0.21457748E+02 -0.76790352E+01  0.33817780E+02
  0.16895020E+02 -0.18257305E+02 -0.33989456E+01  0.31438553E+02
  0.73195847E+02  0.30527805E+03 -0.27625659E+03 -0.13173970E+02
  0.52327698E+02  0.43725922E+02 -0.53056192E+01 -0.26080381E+02
 -0.80343590E+01 -0.59193115E+01  0.15645749E+02  0.14612919E+02
  0.19771430E+01 -0.16780862E+03  0.33273389E+03  0.31980908E+03
  0.61927952E+02  0.10291243E+03 -0.41476974E+00 -0.10810332E+02
  0.16019867E+02  0.22894287E+02 -0.96919661E+01 -0.76568937E+01
 -0.35144089E+02 -0.13620372E+02  0.27711328E+03  0.76293732E+02
 -0.24416869E+03 -0.23412337E+03  0.59856176E+01  0.27036529E+01
 -0.85468964E+02 -0.32569977E+02 -0.93770189E+01  0.22770231E+02
  0.79303360E+01 -0.62524033E+02 -0.43537689E+02  0.18402341E+03
 -0.25016972E+03  0.72703690E+02  0.10605528E+03 -0.51503246E+02
  0.54460190E+02  0.38909683E+02  0.36796555E+02 -0.68024506E+02
 -0.41103394E+02  0.53216110E+02  0.20626389E+02 -0.76586349E+02
 -0.53355740E+02 -0.31135278E+03  0.40809717E+03  0.22601175E+01
 -0.48498840E+02 -0.60832165E+02  0.60337324E+01  0.38279327E+02
  0.14871667E+02  0.28498707E+01 -0.20230129E+02 -0.19879822E+02
 -0.18497733E+01  0.21465652E+03 -0.48994748E+03 -0.32978488E+03
 -0.86516563E+02 -0.15399602E+03 -0.53305179E+00  0.26561081E+02
 -0.14605586E+02 -0.29598480E+02  0.74684281E+01  0.98743944E+01
  0.45331924E+02  0.17090790E+02 -0.33723953E+03 -0.97724609E+02
  0.38985547E+03  0.31390695E+03  0.46843395E+02  0.78864841E+01
  0.82173843E+02  0.24357897E+02  0.20966230E+02 -0.26853409E+02
 -0.14723214E+01  0.67029846E+02  0.53401047E+02 -0.18740390E+03
  0.25239400E+03 -0.10743399E+02 -0.13630222E+03  0.44591599E+02
 -0.69500046E+02 -0.34749329E+02 -0.57859833E+02  0.60593735E+02
  0.43181370E+02 -0.64212585E+02 -0.31543686E+02  0.79737724E+02
  0.79219422E+01  0.12230792E+03 -0.19162125E+03  0.30479715E+01
  0.14701434E+02  0.29905258E+02 -0.25530329E+01 -0.18944748E+02
 -0.87824144E+01 -0.98065197E-01  0.87094269E+01  0.93237696E+01
  0.71487147E+00 -0.98071747E+02  0.22642126E+03  0.13037717E+03
  0.42995682E+02  0.77473969E+02  0.44055772E+00 -0.17098782E+02
  0.44686174E+01  0.12881229E+02 -0.12471924E+01 -0.46582813E+01
 -0.20446930E+02 -0.70700431E+01  0.15115994E+03  0.37530956E+02
 -0.19583459E+03 -0.14785712E+03 -0.36896561E+02 -0.74833937E+01
 -0.28641951E+02 -0.58377419E+01 -0.12369587E+02  0.12254857E+02
 -0.14293089E+01 -0.26398527E+02 -0.23067720E+02  0.59227798E+02
 -0.99076767E+02 -0.24037247E+02  0.57410080E+02 -0.17986755E+02
  0.29093674E+02  0.13013298E+02  0.29289719E+02 -0.19803267E+02
 -0.16676147E+02  0.27448057E+02  0.15189787E+02 -0.29994446E+02
  0.11391175E+00  0.11553438E+00 -0.13704097E+00 -0.10008469E+01
 -0.24247710E-01  0.66881217E-02 -0.69679022E-02 -0.18138342E-01
  0.27570523E-01  0.35871942E-01  0.73015727E-02 -0.69541782E-02
  0.26003545E-01 -0.63337195E-02  0.59983633E-01 -0.62968016E-01
 -0.78753345E-02 -0.75065094E+00 -0.37398331E-01 -0.44260029E-01
 -0.36373202E-01  0.74006170E-02 -0.10022036E-02  0.77789617E-02
  0.12514464E-01 -0.10064093E-01  0.86539835E+00  0.32539022E+00
 -0.91669321E-01 -0.73207438E+00  0.26933299E-01  0.13879357E+00
 -0.26311165E+00 -0.37850919E+00 -0.21304099E+00 -0.14258491E+00
 -0.13731001E+00 -0.30468127E-01  0.92138350E-01  0.98262489E+00
 -0.15070742E+00  0.71532845E-01 -0.49188620E+00 -0.57117575E+00
  0.43504015E+00  0.19652760E+00 -0.13652393E-02 -0.67386091E-01
 -0.13397163E+00 -0.20012894E+00  0.14705020E+00  0.10473769E-01
  0.65290123E+00 -0.26946287E+01  0.31813002E+01  0.30024576E+01
 -0.75441301E-01 -0.15592440E+01 -0.21163234E+00 -0.12697160E+00
 -0.19921806E+00 -0.66176987E+00  0.10346520E+00 -0.18251108E+00
  0.17797949E-01  0.18768592E+00 -0.25953684E+01  0.43567190E+01
 -0.59679967E+00  0.19172314E+01 -0.20841494E+00  0.28366703E+00
  0.23806677E+01 -0.16260111E+00  0.13395768E+00 -0.83577549E+00
 -0.23089886E+00 -0.83205447E-03 -0.53307676E+01  0.61688054E+00
  0.14718914E+01  0.10001513E+02  0.29644823E+01 -0.11001225E+01
  0.14558419E+01  0.26624279E+01  0.21787989E+01  0.13549824E+01
  0.16713552E+01 -0.15284109E+00 -0.52187550E+00 -0.72269974E+01
  0.91789746E+00  0.22233877E+01 -0.45572978E+00  0.10729969E+02
 -0.29951897E+01 -0.21556866E+00  0.35207564E+00  0.13136930E+01
  0.57696944E+00  0.23771763E+01 -0.17125853E+01 -0.86974627E+00
 -0.36376345E+01  0.24080015E+02 -0.22185776E+02  0.18825314E+02
  0.14852663E+02  0.13149285E+02  0.78031552E+00  0.31474845E+01
  0.90485042E+00  0.16362019E+01 -0.48030415E+00  0.18465118E+01
 -0.83016783E+00 -0.18757304E+01  0.21337708E+02 -0.17421921E+02
 -0.10823548E+02  0.15082482E+02 -0.15371398E+01 -0.41927963E+00
 -0.11322727E+02  0.11449957E+01 -0.39108777E+00  0.54798636E+01
  0.16054935E+01  0.82940835E+00  0.90842657E+01 -0.63919306E+01
 -0.66001616E+01 -0.23100985E+02 -0.12172363E+02  0.22952433E+01
 -0.42773733E+01 -0.51716633E+01 -0.57398782E+01 -0.32952108E+01
 -0.44157419E+01  0.97596115E+00  0.49134454E+00  0.14462517E+02
 -0.52479386E+01 -0.77367244E+01  0.63962255E+01 -0.26448851E+02
  0.69845829E+01 -0.13445463E+01 -0.86556637E+00 -0.37851820E+01
 -0.59372693E+00 -0.62924967E+01  0.47564259E+01  0.29345119E+01
  0.36482799E+01 -0.54122810E+02  0.51179455E+02 -0.67288895E+02
 -0.36518005E+02 -0.31562346E+02 -0.62648946E+00 -0.97915506E+01
 -0.14420404E+01 -0.11084070E+01  0.88024235E+00 -0.53258371E+01
  0.19962701E+01  0.75823531E+01 -0.47701126E+02  0.20454956E+02
  0.31747025E+02 -0.50241875E+02  0.81888828E+01  0.43072933E+00
  0.17209763E+02 -0.32296553E+01 -0.40862793E+00 -0.11610969E+02
 -0.27689962E+01 -0.20991714E+01 -0.50960860E+01  0.83177357E+01
  0.55298500E+01  0.15825745E+02  0.13216482E+02 -0.14331722E+01
  0.36789036E+01  0.29861965E+01  0.41942501E+01  0.21892414E+01
  0.33499985E+01 -0.10724660E+01  0.32862179E-01 -0.85228500E+01
  0.73134871E+01  0.61695180E+01 -0.86385641E+01  0.17545179E+02
 -0.52412462E+01  0.18066072E+01  0.71043038E+00  0.29276323E+01
 -0.61344326E-01  0.45447369E+01 -0.35246749E+01 -0.23307097E+01
 -0.14690655E+01  0.35724689E+02 -0.35846252E+02  0.50520844E+02
  0.23054352E+02  0.21617203E+02  0.42514127E+00  0.79941401E+01
  0.58302629E+00  0.34610987E+00 -0.60215032E+00  0.39643896E+01
 -0.13188496E+01 -0.92348232E+01  0.30514219E+02 -0.52573853E+01
 -0.22224289E+02  0.36993195E+02 -0.71565065E+01 -0.77821243E+00
 -0.85328360E+01  0.27982292E+01  0.89062178E+00  0.76935654E+01
  0.13601084E+01  0.11444426E+01 -0.74351370E-01  0.11168009E+00
 -0.12678432E+00 -0.30625785E-01  0.81547022E-01 -0.26790613E+00
 -0.77349359E+00  0.18570650E-01  0.38729448E-01  0.77069062E-02
  0.12018092E-01 -0.19658064E-01 -0.86077973E-02  0.12409091E+00
 -0.10666506E+00  0.45101713E-01  0.15352033E-01  0.32349154E-01
  0.78267974E+00 -0.29498762E+00 -0.52898012E-01  0.61348878E-01
  0.11466917E-01  0.13180026E-02  0.22439856E-01  0.54106633E-02
  0.23398852E+00  0.64493269E+00 -0.25810570E+00 -0.12363273E+00
 -0.66201258E+00 -0.27819192E+00 -0.30108154E+00 -0.24624991E+00
  0.83835721E-01 -0.74149817E-02  0.13186115E+00 -0.16377570E-01
 -0.61401576E-02 -0.10936357E+00 -0.29475039E-01  0.53700852E+00
  0.50398596E-01 -0.11941082E+00  0.84602898E+00 -0.45599908E+00
 -0.29877841E+00 -0.10263896E+00 -0.88044167E-01 -0.85591495E-01
  0.64158519E-02  0.54729255E-02  0.34892559E+00  0.13616561E-01
  0.68630129E+00  0.92597771E+00 -0.78667682E+00  0.75528562E+00
  0.13148088E+01  0.89991741E-01 -0.31526262E+00  0.76205134E-01
 -0.15212274E+00  0.11211586E+00  0.32542080E-01 -0.11553698E+01
  0.24110079E+01 -0.11516418E+01  0.59397310E+00 -0.87734061E+00
 -0.15284472E+01  0.15883168E+01  0.54522204E+00 -0.40533343E+00
  0.17719109E-01 -0.13833664E+00 -0.10189563E+00 -0.79786837E-01
 -0.51425886E+00 -0.15127134E+01  0.96630722E+00  0.11464614E+00
  0.11833754E+01  0.31068289E+00 -0.74194193E-01  0.72967577E+00
 -0.67832701E-01 -0.77846990E-03 -0.20988441E+00 -0.51187862E-01
  0.38249545E-01 -0.78501165E-01  0.32682669E+00 -0.10028915E+01
 -0.68409109E+00  0.19638067E+00 -0.12582330E+01  0.71608406E+00
  0.40842828E+00  0.26023895E+00  0.20802370E+00  0.18907779E+00
 -0.95071435E-01 -0.14524132E-01  0.70622325E-01 -0.23873582E-01
 -0.46930575E+00 -0.11361485E+01  0.12044516E+01 -0.13642397E+01
 -0.16782407E+01 -0.27571243E+00  0.62265939E+00 -0.27575922E+00
  0.26088655E+00 -0.17131168E+00 -0.96791871E-02  0.16397074E+01
 -0.35624075E+01  0.21964979E+01 -0.69169527E+00  0.17876033E+01
  0.23638010E+01 -0.29829435E+01 -0.65094346E+00  0.50062829E+00
 -0.78845382E-01  0.20135804E+00  0.35707735E-01  0.43332718E-01
 -0.73506464E-02 -0.20373335E-01 -0.59456597E-02  0.47092017E-01
  0.59794266E-01 -0.22777200E-01  0.34936231E-01  0.28207558E+00
 -0.12549120E+00  0.68888771E-02  0.73659746E-02 -0.16957683E-01
 -0.69591487E-02  0.60889009E-01  0.48170749E-01  0.90240315E-02
 -0.23745387E-02 -0.88016748E-01  0.73502362E-02 -0.11265669E-02
  0.12217468E+00  0.24448654E+00 -0.23252072E-02 -0.70067826E-02
 -0.43141763E-02 -0.13638791E-01 -0.21918522E-01  0.39478116E-01
  0.21353064E-01 -0.17231619E+00 -0.24383087E+00 -0.18098044E+00
  0.78112245E-01 -0.96717000E-01 -0.21291026E+00 -0.78414738E-01
  0.27862422E-01  0.96148215E-02  0.23770258E-01 -0.13406623E-01
 -0.97504012E-01 -0.22518177E-01  0.13743085E+00  0.13689154E+00
 -0.19897046E-01 -0.10379754E+00  0.18668228E+00 -0.28371492E-01
 -0.66896558E-01 -0.45131464E-01  0.52789491E-01 -0.40041965E-01
 -0.66618264E-01  0.42511921E-01 -0.38794965E-01 -0.10955274E-01
  0.30871361E-01  0.52086008E-02  0.24081497E-01 -0.67935847E-02
 -0.13217945E-01  0.82531154E-01  0.28200024E+00 -0.76102950E-02
 -0.90683848E-02  0.23629060E-02 -0.10296954E-02 -0.14055241E-01
 -0.31999350E-01 -0.57006437E-01  0.18182568E-01 -0.55214246E-02
  0.49740784E-02 -0.54625701E-01 -0.27094817E+00  0.51207960E-01
  0.45274426E-02  0.16952408E-01  0.41054886E-01 -0.54486722E-01
 -0.10627155E-01 -0.28977985E-01  0.76224138E-02  0.58471590E-01
 -0.90225786E-02  0.22696029E-01 -0.16175292E-01  0.21533296E-02
  0.36474864E-02 -0.14331752E+00 -0.11911415E-01 -0.35727635E-01
 -0.25858896E-01 -0.81544854E-02  0.45217127E-02  0.82371905E-02
  0.27359467E-01 -0.12122326E-01 -0.90430006E-02 -0.25242612E-01
 -0.10398199E-01 -0.11534833E-01  0.29744118E-01 -0.14588499E+00
 -0.27973067E-01 -0.17960723E-01 -0.72880208E-01 -0.13211421E-01
  0.74935742E-02  0.40451579E-01 -0.13288229E-02  0.23200870E-01
 -0.21652488E-01  0.10630925E-01 -0.19871011E-01 -0.89811645E-02
  0.44909422E-02  0.15431918E-01  0.17651660E-01  0.37659161E-01
  0.40000826E-02  0.67411773E-02  0.39261788E-01  0.64045377E-02
  0.15160270E-01  0.13118289E-01 -0.23408242E-01 -0.30519590E-02
 -0.95153078E-02 -0.35423130E-01  0.18906863E-01  0.64482582E-02
 -0.96611202E-01  0.15293911E-01 -0.54000061E-01  0.30757934E-01
  0.59357226E-01  0.36398359E-01  0.25581047E-02  0.11665760E-01
  0.56256284E-02  0.57567656E-02  0.31496419E-02 -0.46144247E-01
  0.41687146E-01 -0.34603193E-01  0.53481121E-01  0.11668258E-01
 -0.49698241E-02  0.57190470E-02  0.17202952E-02 -0.39180480E-02
 -0.26724450E-01 -0.32743976E-01  0.17875224E-01 -0.13148280E-01
  0.97347708E+01  0.80199353E-02  0.88190675E-01  0.34591865E-01
 -0.20683805E-01  0.29348712E-01 -0.21960218E-01 -0.94146095E-02
  0.15242770E-02  0.18784337E-01 -0.42741895E-02 -0.11803486E-01
  0.89114830E-02  0.17238567E+01 -0.14606643E+00 -0.23781560E+00
 -0.18891616E+00 -0.83614886E-01  0.48989985E-01 -0.23082244E+00
 -0.45915204E+00  0.52839015E-01  0.65929592E-01 -0.27021211E+00
  0.59767950E-01  0.45384470E-01  0.26139557E+02 -0.26177340E+01
 -0.18818339E+01  0.28918123E+01  0.26626928E+01 -0.13387194E+01
  0.35804051E+00  0.61114317E+00 -0.39724249E+00 -0.34554464E+00
  0.11107710E-01  0.46736580E+00 -0.14963692E+00 -0.14329062E+02
  0.17789956E+01  0.11053965E+02  0.40939875E+01  0.74688959E+01
  0.81202614E+00  0.18834096E+01  0.78406534E+01  0.12138882E+01
 -0.18455256E+01  0.44079380E+01 -0.87374473E+00 -0.19130917E+01
 -0.12161188E+03  0.20769333E+02  0.10549553E+02 -0.25936478E+02
 -0.22852903E+02  0.10790630E+02  0.59407198E+00 -0.15447998E+01
  0.52851820E+01  0.17490315E+00  0.17242507E+01 -0.27120552E+01
  0.20165932E+00  0.56903172E+01 -0.30547836E+02 -0.53477966E+02
 -0.13067129E+02 -0.37363403E+02 -0.77788730E+01 -0.83473568E+01
 -0.36846283E+02 -0.10496929E+02  0.98110609E+01 -0.20411942E+02
  0.33325281E+01  0.11927084E+02  0.18244952E+03 -0.48165421E+02
 -0.24666489E+02  0.77004440E+02  0.64335312E+02 -0.29243439E+02
 -0.68443356E+01 -0.68185723E+00 -0.17612900E+02  0.27443235E+01
 -0.67463574E+01  0.52837248E+01  0.84665346E+00  0.83355331E+02
  0.10590701E+03  0.85216660E+02  0.10837219E+02  0.71135712E+02
  0.20155457E+02  0.19259609E+02  0.72910690E+02  0.27517426E+02
 -0.19637802E+02  0.41009949E+02 -0.52474484E+01 -0.27441072E+02
 -0.12251461E+03  0.41699886E+02  0.27045622E+02 -0.92491440E+02
 -0.72843262E+02  0.32114166E+02  0.11262262E+02  0.40949612E+01
  0.22106949E+02 -0.48072939E+01  0.86024685E+01 -0.41298609E+01
 -0.18827733E+01 -0.14486720E+03 -0.13257008E+03 -0.48221802E+02
  0.35999947E+01 -0.58804535E+02 -0.19716797E+02 -0.20199415E+02
 -0.64824936E+02 -0.29064972E+02  0.16903168E+02 -0.37667236E+02
  0.34804230E+01  0.26898163E+02  0.30944578E+02 -0.11548169E+02
 -0.11504378E+02  0.38749802E+02  0.28696697E+02 -0.12365783E+02
 -0.53707714E+01 -0.24697113E+01 -0.94244776E+01  0.22111998E+01
 -0.35927391E+01  0.10858068E+01  0.97322190E+00  0.68757813E+02
  0.55788940E+02  0.54013424E+01 -0.52038832E+01  0.17593613E+02
  0.63505487E+01  0.76194353E+01  0.21402802E+02  0.10745119E+02
 -0.52722201E+01  0.12947475E+02 -0.74531823E+00 -0.95251160E+01
 -0.11819899E+00  0.16981831E+01  0.17257079E+01 -0.46752770E-01
  0.31282850E-01 -0.48106872E-02  0.42170651E-01  0.12124907E-01
 -0.19874834E-01  0.12629479E-01  0.39390005E-01 -0.12933316E-01
 -0.14372597E-01  0.10223609E+00 -0.16555766E+01  0.15552588E+01
 -0.12264323E+00  0.65852165E-01 -0.47787791E-03 -0.17770164E-01
  0.24633724E-01 -0.14257875E-01 -0.19858576E-01  0.25402587E-01
 -0.80514252E-02  0.68274657E-02 -0.99085331E+00  0.17199124E+01
 -0.47460574E+00 -0.74100327E+00  0.10574150E+01  0.11296368E+00
  0.82022703E+00 -0.18898284E+00  0.36352625E+00  0.80850065E-01
 -0.19919533E+00 -0.40538304E-01  0.16510320E+00  0.11990185E+01
  0.51340394E-01  0.75055975E+00 -0.12824067E+01  0.86559242E+00
 -0.28388435E-02  0.14062117E-01  0.24629068E+00  0.20781083E+00
 -0.11486781E+00  0.91260597E-02  0.73089242E-01 -0.38038800E-02
  0.51901360E+01  0.11364081E+02 -0.14781399E+02  0.34115417E+01
  0.17582844E+01  0.49295741E+00  0.74259001E+00  0.60993052E+00
  0.43994179E+00  0.49398407E+00 -0.82156599E-01  0.19255292E+00
  0.72789848E+00 -0.10661777E+02  0.13685345E+02  0.17330503E+02
  0.17598810E+01  0.15718220E+01 -0.35067129E+00 -0.24391625E+01
  0.87025601E+00  0.10643626E+01  0.49751109E+00 -0.65840638E+00
  0.33091986E+00 -0.13313618E+01  0.21538330E+02 -0.17283096E+02
  0.23691771E+02  0.43560228E+01 -0.13055440E+02  0.54472351E+00
 -0.12533862E+02  0.69577456E+01 -0.59899936E+01 -0.24915972E+01
  0.48114147E+01 -0.15907496E+00 -0.37714081E+01 -0.12313135E+02
 -0.22617416E+02  0.24490969E+01  0.22901764E+02 -0.17509417E+02
  0.51498137E+01  0.57923192E+00 -0.68807120E+01 -0.37194929E+01
  0.33164265E+01 -0.77732426E+00 -0.33252787E-01 -0.22301905E+01
 -0.31336716E+02  0.28626881E+01  0.13524348E+03 -0.29654034E+02
 -0.11670374E+02 -0.11883140E+02 -0.67173586E+01 -0.26616096E+01
 -0.46543760E+01 -0.62572260E+01 -0.36758001E+01 -0.12831593E+00
 -0.83014050E+01  0.10399525E+03 -0.14304044E+03 -0.14625184E+02
 -0.12641206E+02 -0.18179705E+02  0.63950968E+01  0.24394501E+02
 -0.26621685E+01 -0.96777048E+01 -0.36132803E+01  0.60474663E+01
 -0.52178507E+01  0.14800138E+02 -0.13617873E+03  0.98202393E+02
 -0.52166687E+02  0.82724130E+00  0.79597404E+02 -0.97800255E+01
  0.51829224E+02 -0.55843548E+02  0.30941998E+02  0.15340664E+02
 -0.32310665E+02  0.47805395E+01  0.16678787E+02  0.71018158E+02
  0.11442222E+03  0.75697632E+01 -0.13351146E+03  0.80042557E+02
 -0.19554029E+02 -0.23364077E+01  0.45533417E+02  0.25092588E+02
 -0.27485870E+02  0.11551980E+02 -0.85284786E+01  0.22155182E+02
  0.72216705E+02 -0.18108646E+03 -0.35639255E+03  0.91767876E+02
  0.27649414E+02  0.51445084E+02  0.16393127E+02  0.84795976E+00
  0.11156778E+02  0.21300430E+02  0.15415002E+02 -0.20493467E+01
  0.29226500E+02 -0.33076929E+03  0.39775537E+03 -0.19134300E+03
  0.43584152E+02  0.63088696E+02 -0.25370867E+02 -0.73108444E+02
  0.75435942E+00  0.30592009E+02  0.11364077E+02 -0.18345688E+02
  0.19485807E+02 -0.48085079E+02  0.35883057E+03 -0.27099561E+03
 -0.71656769E+02 -0.42929932E+02 -0.21730472E+03  0.31643618E+02
 -0.90837852E+02  0.16265657E+03 -0.70991821E+02 -0.36282787E+02
  0.85148849E+02 -0.18301117E+02 -0.27730667E+02 -0.21271362E+03
 -0.24034348E+03 -0.90665176E+02  0.33108374E+03 -0.14937883E+03
  0.15747417E+02  0.58647776E+01 -0.11471977E+03 -0.71360031E+02
  0.83697266E+02 -0.38742783E+02  0.33933640E+02 -0.68442322E+02
 -0.65536270E+02  0.34354953E+03  0.40484619E+03 -0.11488376E+03
 -0.30950409E+02 -0.81028839E+02 -0.16655777E+02  0.55178194E+01
 -0.82527313E+01 -0.27838104E+02 -0.20135132E+02  0.50235019E+01
 -0.40293747E+02  0.42467825E+03 -0.45499561E+03  0.41682199E+03
 -0.65872879E+02 -0.86527435E+02  0.35884354E+02  0.88252121E+02
  0.32965231E+01 -0.39156567E+02 -0.14947560E+02  0.21975187E+02
 -0.26912611E+02  0.60366077E+02 -0.41629004E+03  0.33380884E+03
  0.27333203E+03  0.82169006E+02  0.25991675E+03 -0.40061569E+02
  0.73255264E+02 -0.19695262E+03  0.74450424E+02  0.36899384E+02
 -0.95648865E+02  0.25082705E+02  0.18237808E+02  0.29320825E+03
  0.22077356E+03  0.16044160E+03 -0.35729321E+03  0.12526577E+03
  0.13969834E+02 -0.11527357E+02  0.12376456E+03  0.87678589E+02
 -0.10517470E+03  0.47443069E+02 -0.45187057E+02  0.84595184E+02
  0.20050934E+02 -0.17802788E+03 -0.16851569E+03  0.49642136E+02
  0.13681282E+02  0.42664764E+02  0.62386675E+01 -0.44329853E+01
  0.11935358E+01  0.12374494E+02  0.84155293E+01 -0.32429962E+01
  0.19101898E+02 -0.19180682E+03  0.18370609E+03 -0.23252711E+03
  0.34046062E+02  0.40737793E+02 -0.16559662E+02 -0.37816513E+02
 -0.23657229E+01  0.17279066E+02  0.67948842E+01 -0.89706364E+01
  0.12578117E+02 -0.25909058E+02  0.17511346E+03 -0.14709787E+03
 -0.17955647E+03 -0.46925888E+02 -0.11192870E+03  0.18169205E+02
 -0.22695389E+02  0.84683502E+02 -0.29096588E+02 -0.13504686E+02
  0.38522064E+02 -0.11487774E+02 -0.34478910E+01 -0.14182307E+03
 -0.71934738E+02 -0.81841080E+02  0.13787189E+03 -0.40718719E+02
 -0.16116913E+02  0.78342295E+01 -0.48472748E+02 -0.38284927E+02
  0.46472549E+02 -0.19452408E+02  0.19880953E+02 -0.36534103E+02
  0.72543681E-01 -0.91503091E-01 -0.11593873E+00 -0.89834797E+00
  0.61833626E+00  0.47313970E-01  0.14711141E-02  0.10285537E-01
 -0.22091963E-02 -0.20506838E-01  0.34120731E-01 -0.22531549E-01
 -0.78072748E-03 -0.96214533E-01 -0.54838859E-01 -0.14777189E+00
 -0.64081067E+00 -0.69528615E+00 -0.30307973E-01 -0.33019178E-01
  0.77059711E-02 -0.97604245E-02  0.16391927E-02  0.17542891E-02
  0.45385696E-02 -0.20407381E-01  0.10522871E+01  0.18861836E+00
 -0.25081070E-01 -0.14823074E+01  0.23610926E+00  0.65894437E+00
 -0.24199402E+00 -0.87921262E-01 -0.54795277E+00 -0.14422113E+00
 -0.10366816E+00 -0.18718950E+00  0.21545323E-01  0.42069238E+00
 -0.22901514E+00 -0.91535032E-01  0.25210854E-01 -0.13556508E+01
  0.37180072E+00  0.70798677E+00  0.22921547E-01  0.14435732E+00
  0.44424646E-01 -0.13737641E+00  0.19060681E-01  0.10951716E+00
  0.14380064E+01 -0.18441188E+00  0.46994648E+01 -0.21012440E+01
  0.58280001E+01 -0.13754472E+01 -0.14721307E+01  0.12456213E+00
 -0.15493172E+00  0.83261234E+00 -0.55525309E+00 -0.44475816E-01
  0.58509374E+00  0.19653130E+01 -0.75903958E+00  0.46786280E+01
 -0.82793922E+01 -0.22516365E+01  0.15342178E+01 -0.47626296E+00
  0.35320491E+00  0.90423584E+00 -0.91187477E-01 -0.61380106E+00
 -0.55390352E+00  0.45646805E+00 -0.69860539E+01 -0.81822318E+00
 -0.18467588E+01  0.76645617E+01  0.19130973E+01 -0.54477282E+01
  0.15927752E+01  0.45357138E+00  0.58195386E+01  0.14146250E+01
  0.78945208E+00  0.14831170E+01 -0.24750523E+00 -0.21675032E+00
  0.16968604E+01 -0.38511193E+01 -0.57537827E+01  0.97383308E+01
 -0.13728514E+01 -0.47436857E+01 -0.27548199E+01 -0.15055321E+01
  0.76347291E-01  0.40537015E+00 -0.25368649E+00 -0.12546911E+01
 -0.13612034E+02  0.10055150E+02 -0.42518860E+02  0.18920914E+02
 -0.25449722E+02  0.61947536E+01  0.10574360E+02  0.17470119E+01
 -0.16524611E+00 -0.48321447E+01  0.26428556E+01  0.16906738E+01
 -0.48421726E+01 -0.15996870E+02  0.18508347E+02 -0.23283052E+02
  0.35497879E+02  0.12486041E+02 -0.13592185E+02  0.23057766E+01
 -0.33479505E+01 -0.91297178E+01  0.20603869E+01  0.30273180E+01
  0.47495813E+01 -0.24556150E+01  0.14484992E+02 -0.12824782E+01
  0.20726955E+01 -0.13500335E+02 -0.13579146E+02  0.12507602E+02
 -0.44871578E+01 -0.13822850E+01 -0.16225632E+02 -0.32869403E+01
 -0.13542660E+01 -0.36956697E+01  0.49570030E+00 -0.28008473E+01
 -0.72233200E+01  0.16578842E+02  0.20905169E+02 -0.18679197E+02
  0.21797934E+01  0.85508757E+01  0.10466121E+02  0.37626474E+01
 -0.83420098E+00 -0.52542198E+00  0.81247646E+00  0.30173635E+01
  0.29996323E+02 -0.24423281E+02  0.98381454E+02 -0.40458511E+02
  0.31081450E+02 -0.10232324E+02 -0.22379593E+02 -0.84146461E+01
  0.16865023E+01  0.94843407E+01 -0.36858835E+01 -0.51620407E+01
  0.11019041E+02  0.38974045E+02 -0.47553543E+02  0.32823257E+02
 -0.45407303E+02 -0.18267166E+02  0.32208038E+02 -0.38544321E+01
  0.74274802E+01  0.22328947E+02 -0.70309238E+01 -0.59846659E+01
 -0.10427267E+02  0.56140108E+01 -0.11142908E+02  0.50988245E+01
 -0.87233222E+00  0.10051833E+02  0.17175934E+02 -0.81438684E+01
  0.35580685E+01  0.14109000E+01  0.12470690E+02  0.20998695E+01
  0.89491498E+00  0.26432140E+01 -0.34282875E+00  0.32492125E+01
  0.95376787E+01 -0.15285567E+02 -0.19982010E+02  0.12006571E+02
 -0.14975014E+01 -0.40201006E+01 -0.91834316E+01 -0.27835939E+01
  0.51126963E+00  0.23976564E+00 -0.81174558E+00 -0.18622960E+01
 -0.20657654E+02  0.16039459E+02 -0.63869213E+02  0.26869736E+02
 -0.87734652E+01  0.46892033E+01  0.14171227E+02  0.80630875E+01
 -0.16122293E+01 -0.58862238E+01  0.13981990E+01  0.40675755E+01
 -0.73429761E+01 -0.29788897E+02  0.30969648E+02 -0.10377958E+02
  0.15621192E+02  0.83370752E+01 -0.22060728E+02  0.21002872E+01
 -0.47829394E+01 -0.15391680E+02  0.58026681E+01  0.41257248E+01
  0.70328174E+01 -0.43682194E+01 -0.13153023E+00  0.52396130E-01
 -0.78708112E-01 -0.31984996E-01  0.66879749E-01 -0.44668856E+00
 -0.11997776E+01  0.44919260E-01 -0.21612016E-01 -0.85290596E-02
  0.40041875E-01 -0.18274922E-01 -0.12108568E-01  0.68851411E-01
 -0.16586339E+00  0.10567039E+00 -0.35489373E-01  0.10825992E+00
  0.11110220E+01 -0.48024806E+00 -0.32602344E-01  0.30053170E-01
  0.14435067E-01 -0.43142173E-01  0.28743999E-01 -0.16354781E-03
  0.43814236E+00  0.41187564E+00 -0.30113024E+00  0.17926472E+00
 -0.76448739E+00 -0.22111150E-01 -0.31990391E+00 -0.39657485E-01
  0.26836854E+00  0.31483594E-01  0.17101412E+00 -0.48243791E-01
  0.58657952E-01  0.29777789E+00  0.70694327E-01  0.46847123E+00
  0.16531503E+00 -0.68414450E-01  0.86738014E+00 -0.25612128E+00
 -0.27293497E+00  0.91270685E-01  0.98997988E-02 -0.54274175E-01
  0.55843029E-01  0.87239027E-01  0.14875145E+01  0.18058690E+00
  0.96503448E+00  0.38504779E-01 -0.81080890E+00  0.23628511E+01
  0.31373041E+01  0.35168904E+00  0.17957918E+00  0.99717319E-01
  0.12352604E+00 -0.28581694E-01  0.32931817E+00 -0.18351791E+01
  0.33663919E+01 -0.17299489E+01  0.30873060E+00 -0.10293865E+01
 -0.27952223E+01  0.29568195E+01  0.23304486E+00  0.48831755E+00
 -0.16388200E-01  0.26351678E+00 -0.23727889E+00  0.21022534E+00
 -0.37114644E+00 -0.61679882E+00  0.70735806E+00 -0.31027347E+00
  0.14951220E+01 -0.35590681E+00 -0.21566993E-02  0.32540190E+00
 -0.41896868E+00 -0.11011456E+00 -0.22550865E+00 -0.13376594E+00
 -0.11999566E+00 -0.62257117E+00 -0.84297597E-01 -0.13334846E+01
 -0.10768690E+01  0.16588950E+00 -0.11461287E+01 -0.81029363E-01
  0.43433127E+00 -0.16242848E+00 -0.12601897E-01  0.15622550E+00
 -0.24858956E+00 -0.19455428E+00 -0.25591040E+01  0.25164348E+00
 -0.15365639E+01 -0.79542875E-01  0.11995535E+01 -0.45441875E+01
 -0.45316744E+01 -0.10119162E+01 -0.80300748E-01 -0.52209429E-01
 -0.35192692E+00  0.85065424E-01 -0.56523353E+00  0.30118425E+01
 -0.47145052E+01  0.29010694E+01 -0.36481503E+00  0.11654501E+01
  0.43329029E+01 -0.52999196E+01 -0.24453492E+00 -0.10941248E+01
  0.39213531E-01 -0.34023356E+00  0.27661628E+00 -0.51622355E+00
 -0.63605845E-01  0.50896596E-01  0.11700895E-01  0.43969844E-01
  0.13695908E+00 -0.28410679E-01 -0.93208402E-02  0.34158772E+00
 -0.23341532E+00  0.18170306E-01  0.19188976E-02 -0.67197047E-02
  0.79181045E-02  0.70990920E-01  0.41841712E-01  0.20218294E-02
  0.81035674E-01 -0.52733004E-01 -0.91757327E-02 -0.15658231E-01
  0.20307922E+00  0.37615097E+00 -0.61855088E-02  0.74328673E-02
  0.91638938E-02 -0.92550591E-02  0.22771759E+00 -0.20004077E-01
 -0.19363020E+00 -0.27965689E-02  0.73775570E-02 -0.16548783E+00
  0.24623008E-01  0.59029978E-01 -0.32041287E+00 -0.62310666E-01
 -0.22864671E-01  0.68012918E-02  0.41548252E-01  0.16248763E+00
 -0.53943157E-01 -0.10124868E+00  0.88020802E-01  0.84402598E-03
 -0.98183513E-01 -0.16950405E+00  0.16585670E+00  0.22753306E+00
 -0.47868270E-01 -0.62641382E-01  0.39978631E-01 -0.17434880E-01
 -0.12619770E+00  0.46246570E-01 -0.21488875E-01  0.72626054E-01
  0.24535481E-01  0.37770528E-01  0.66443910E-02 -0.34785960E-01
  0.48899208E-03  0.11222393E+00  0.31389344E+00 -0.94639622E-02
  0.29937250E-02  0.18342680E+00 -0.42065293E-01  0.56304703E-02
 -0.50527267E-02 -0.67958534E-01 -0.14655958E-01  0.18668730E-01
  0.40048440E-02 -0.52483656E-01 -0.29388094E+00  0.83209284E-01
  0.99197812E-02  0.39488557E-02  0.73701091E-01 -0.11414200E+00
  0.50474752E-01  0.52794032E-02  0.51152520E-02  0.31500902E-01
  0.14944742E-01  0.27513611E-02 -0.20441338E-01 -0.17187307E-01
  0.23239013E-01 -0.15333305E+00  0.10820903E-01  0.10246074E+00
 -0.10813680E-01 -0.28045258E-01  0.85988380E-02 -0.66896558E-01
  0.20317487E-01 -0.25311204E-01  0.21137523E-01 -0.59515089E-02
 -0.73466599E-02 -0.46075860E-03 -0.14882740E-01 -0.15001261E+00
 -0.62333129E-01 -0.11848943E+00 -0.74348450E-01 -0.13404629E-02
 -0.22817830E-01 -0.10830127E-01 -0.48877969E-02  0.12237121E-01
 -0.30541399E-01  0.57756715E-02 -0.10295756E-01  0.12080543E-01
 -0.14406472E-01  0.41248903E-01  0.44591893E-01  0.36592875E-01
  0.55447151E-03  0.19915279E-01 -0.63508260E-02 -0.47519129E-01
  0.28801890E-01  0.77612214E-02 -0.59790276E-02  0.73863971E-02
  0.16617052E-01 -0.22494163E-01 -0.71962893E-01 -0.41219033E-01
 -0.70982397E-01  0.12210121E-01 -0.87522030E-01 -0.47411237E-01
  0.57425760E-01  0.45690559E-01  0.26248194E-01  0.28013920E-01
 -0.16828963E-02  0.15796801E-01  0.20284111E-01 -0.47389165E-01
  0.37087288E-01 -0.58108825E-01 -0.54313838E-02  0.10483098E+00
  0.13532057E-01 -0.20340554E-01 -0.50312984E-02 -0.42387210E-02
 -0.89632049E-02 -0.32773022E-01  0.21721896E-01  0.11161234E-01
  0.30495803E+01  0.35076544E-02  0.76724398E-02  0.87806769E-02
  0.47458559E-02  0.25473761E-02  0.29852837E-02 -0.12277642E-03
 -0.32025622E-03  0.10599102E+00 -0.21536589E-01  0.46008386E-01
  0.78201413E-01  0.22680623E-01 -0.46905659E-01 -0.96271224E-02
  0.12562237E-01  0.24986394E-01  0.10458719E+01 -0.25089502E-01
 -0.17962436E+00 -0.17404801E+00 -0.22410804E-01  0.27813714E-01
 -0.18103600E-01 -0.58276366E-01  0.26434986E-02  0.17178220E+00
 -0.15449820E+00 -0.10333896E+00 -0.18914130E+00 -0.13402218E+00
  0.16679607E+00  0.46815977E-01 -0.91324374E-02 -0.10088241E+00
 -0.18385895E+01  0.77625453E-01  0.55216676E+00  0.35753921E+00
 -0.87231733E-02 -0.51372506E-01  0.34072313E-01  0.17208672E+00
 -0.13502965E-01 -0.32891464E+00  0.15413618E+00  0.46012130E-01
  0.10862464E+00  0.12537771E+00 -0.12952727E+00 -0.47462337E-01
 -0.35870597E-02  0.86061358E-01  0.89103073E+00 -0.37754767E-01
 -0.38592705E+00 -0.17952418E+00  0.40533394E-01  0.47559445E-02
 -0.18648680E-01 -0.11294575E+00  0.12865890E-01 -0.69007254E-03
 -0.18691146E+00 -0.33661297E+00  0.48614144E-02  0.11631002E-01
 -0.95324073E-03  0.85280649E-02  0.36868374E-02  0.60911477E-02
  0.32471757E-01  0.35279292E+00 -0.18637425E+00 -0.75623025E-02
 -0.97096674E-02  0.31888073E-02 -0.51301718E-02 -0.62356028E-02
  0.11819323E-01 -0.84096253E-01  0.25142324E+00 -0.35519764E-01
  0.26370293E-01  0.97039521E-01 -0.31170717E-01 -0.37270427E-01
  0.46906829E-01  0.65398109E-02  0.45785110E-01  0.13975871E+00
  0.26513165E+00 -0.29776648E-01 -0.25009252E-01  0.36971886E-01
 -0.30679654E-01  0.35375290E-01  0.11662495E+00  0.15254176E+00
  0.67530102E+00  0.15002050E+01  0.58707792E-01 -0.19350795E+00
  0.69749177E-01 -0.31615753E-01 -0.64090908E-01 -0.20062798E+00
 -0.83293790E+00 -0.15851488E+01  0.79647267E+00  0.14819025E+00
  0.13229817E+00 -0.22473097E-01  0.55494756E-01  0.13741881E+00
 -0.30662364E+00  0.15882357E+01 -0.10474654E+01  0.56707895E+00
  0.21353865E+00 -0.70312959E+00  0.67766070E-01  0.13480252E+00
 -0.26861513E+00  0.10558594E+00  0.42528209E+00 -0.81927925E+00
 -0.13487949E+01 -0.28105813E+00  0.56431311E+00 -0.22810180E+00
  0.15924788E+00 -0.40170726E+00 -0.70476115E+00 -0.50016040E+00
 -0.57117230E+00 -0.95467198E+00 -0.63309115E+00  0.40046287E+00
 -0.30428419E+00  0.42816609E-01  0.86010098E-01  0.67586058E+00
  0.25389242E+01  0.97007102E+00 -0.13116741E+01 -0.12303473E+00
 -0.53631341E+00  0.64055860E-01 -0.72015226E-01 -0.42832971E+00
  0.86087793E+00 -0.44755630E+01  0.10564413E+01 -0.66151208E+00
 -0.45737475E+00  0.15295457E+01  0.55482637E-01 -0.10898268E+00
  0.44265327E+00 -0.39993185E+00 -0.14845781E+01  0.12734603E+01
  0.23328686E+01  0.94133902E+00 -0.13304433E+01  0.53523225E+00
 -0.28171420E+00  0.10899057E+01  0.11757889E+01  0.43657404E+00
  0.14657229E+00  0.85669935E-01  0.69275594E+00 -0.22207184E+00
  0.28957170E+00  0.16122398E-02  0.24003390E-01 -0.55424219E+00
 -0.20080192E+01  0.30063146E+00  0.88270497E+00 -0.69684207E-01
  0.51002681E+00 -0.63769460E-01  0.87251067E-02  0.35308439E+00
 -0.61427224E+00  0.32225552E+01 -0.25058147E-02  0.50169885E+00
  0.13464719E+00 -0.10105829E+01 -0.71476698E-01  0.32011800E-01
 -0.21982674E+00  0.30498493E+00  0.11992683E+01 -0.96706665E+00
 -0.11388685E+01 -0.73485714E+00  0.80431402E+00 -0.39570129E+00
  0.16278827E+00 -0.83236426E+00 -0.58864462E+00 -0.14675557E-01
 -0.23623409E-01 -0.17950740E-01  0.66034079E-01 -0.11922823E+00
 -0.54179132E-02  0.14375947E-01 -0.60841930E-02 -0.26708576E-02
  0.43763369E-02 -0.10887977E-01 -0.71096830E-02  0.11585611E+00
  0.90701818E-01  0.55126939E-03  0.56899376E-02  0.31451136E-02
 -0.52986522E-02  0.10125035E+00  0.17959678E+00  0.10625632E+00
 -0.50184567E-01  0.10304493E+00  0.24058525E-01 -0.32390207E-01
  0.75553022E-02 -0.20764859E-01 -0.11460811E+00  0.79707861E-01
 -0.29399197E-02 -0.67522347E-01  0.13258696E+00  0.49736485E-01
 -0.78869835E-02 -0.39157867E-02  0.24828210E-01  0.10480851E+00
  0.19343020E+00  0.17289960E+00 -0.31678689E+00 -0.17360760E+00
  0.37843499E-01  0.62656105E-01 -0.18113920E-02 -0.78926921E-01
 -0.26774192E+00 -0.22751542E-01 -0.13300698E+00  0.24421449E+00
 -0.40151697E+00 -0.44680603E-01  0.90510011E-01 -0.45797311E-01
 -0.19253582E-01 -0.53374839E+00 -0.90245157E+00 -0.14048404E+00
  0.31762445E+00 -0.75603157E+00 -0.17422201E+00  0.16830651E+00
 -0.67688465E-01  0.83993077E-01  0.92552233E+00 -0.17285004E-01
  0.26109928E+00  0.74910754E+00 -0.50195228E-01 -0.18097822E+00
 -0.59655149E-01  0.36261842E-01 -0.16167019E+00 -0.18626478E+00
 -0.31044501E+00 -0.34046000E+00  0.30551195E+00  0.83555341E-01
 -0.10926254E+00 -0.14400959E+00  0.99276416E-02  0.17333108E+00
  0.29973918E+00 -0.38495313E-01  0.25320417E+00 -0.16226834E+00
  0.34776393E+00  0.68651736E-01 -0.18148480E+00  0.94451785E-01
  0.44157464E-01  0.68308866E+00  0.12142458E+01  0.23941616E-01
 -0.49178916E+00  0.10317268E+01  0.30297923E+00 -0.16258198E+00
  0.87277539E-01 -0.87765038E-01 -0.12280102E+01 -0.17898367E+00
 -0.24613488E+00 -0.11506538E+01 -0.37660396E+00  0.14181739E+00
  0.15465289E+00 -0.45992363E-01  0.17110234E+00 -0.21097979E-01
  0.60008111E-03 -0.18510207E-02 -0.62552840E-02 -0.93422085E-02
  0.60288727E-01 -0.40334366E-01 -0.43196455E-02 -0.61084591E-02
 -0.83072297E-02 -0.34225453E-01 -0.11824392E-01 -0.13751617E-02
 -0.17261762E-01  0.43971881E-01  0.76659024E-01  0.33106836E-02
  0.45388602E-02  0.75911164E-01  0.46962660E-01  0.21635791E-01
 -0.77638447E-01  0.22221390E-01 -0.79871535E-01 -0.12672771E-01
  0.25498134E-02  0.12646123E-02  0.51471148E-01  0.33606589E-02
 -0.13351038E-01 -0.24537465E-01 -0.35670411E-01  0.14631916E-01
 -0.90372801E-01  0.99615054E-03  0.22813002E-01  0.21750359E-01
 -0.83270609E-01 -0.18755152E-02  0.53586461E-01  0.93389495E-03
 -0.19740278E+00 -0.11719644E+00  0.33343486E-01  0.22319425E-01
 -0.29066566E-02  0.41417845E-01 -0.10801822E-01  0.28476704E-01
  0.10270040E-01  0.15855376E+00 -0.24726029E+00  0.14735274E-01
 -0.27862186E-01 -0.23555484E-01 -0.40901415E-02  0.60059428E-02
  0.97556561E-02  0.91812015E-02 -0.14488044E-02  0.16592182E-02
  0.36357131E-01  0.13751268E-01 -0.29764043E-01  0.92727989E-02
 -0.86509585E-02 -0.18609468E-01 -0.27944660E-03  0.31448000E-02
  0.75850119E-02 -0.18039661E-01  0.38740944E-01  0.79681993E-01
  0.48902296E-02  0.57677589E-02 -0.33417840E-01 -0.68668872E-02
  0.22215866E-02 -0.40455721E-02  0.36775912E-02 -0.22278043E-01
  0.10155324E-01 -0.54381907E-01  0.22469953E-01  0.53363740E-01
 -0.10555823E-01 -0.46219714E-02 -0.16068282E-02  0.35136200E-01
  0.11071407E-01  0.18289034E-02 -0.75299372E-02 -0.14482980E-03
  0.35247689E-02  0.42061885E-02  0.51727854E-02  0.17811508E-02
 -0.10641966E-01  0.48779808E-02  0.15797321E-01  0.18416286E-01
  0.16457360E-05 -0.16946378E-02 -0.99487118E-02  0.13055208E-01
 -0.14801213E-02 -0.56088269E-02 -0.40782355E-02 -0.35834806E-02
  0.71111391E-02  0.12105495E-01 -0.45448774E-03  0.62631629E-02
  0.36953592E-02 -0.28422424E-02 -0.19898398E-02  0.48590712E-02
  0.11628111E-01  0.28534024E-03 -0.12218227E-01  0.24151376E-02
 -0.16151644E-03  0.75605242E-02  0.45826547E-02 -0.46821274E-02
  0.12317483E-02  0.26966267E+01 -0.14578773E-05  0.50493293E-02
  0.65831314E-02  0.43787733E-02  0.39015976E-02  0.89700258E-03
  0.85402263E-03 -0.68476162E-03  0.11744529E+00  0.12448851E-01
  0.51003765E-01  0.40138353E-01  0.26125019E-01 -0.16533555E-01
 -0.29090958E-01 -0.17052057E-02  0.80826618E-02  0.11973115E+01
 -0.65078020E-01 -0.99028289E-01 -0.81597328E-01 -0.32280181E-01
 -0.22603730E-01 -0.10447552E-01 -0.41825704E-01  0.23424164E-02
  0.84804952E-01 -0.19440408E+00 -0.12508392E+00 -0.10045743E+00
 -0.13333432E+00  0.45456056E-01  0.10219765E+00  0.23704873E-01
 -0.32805733E-01 -0.18993034E+01  0.22647890E+00  0.26471585E+00
  0.15323693E+00  0.31060224E-01  0.91907263E-01  0.40878780E-01
  0.95126569E-01  0.45649107E-02 -0.19986723E+00  0.13906372E+00
  0.85632384E-01  0.60318701E-01  0.11465533E+00 -0.33805624E-01
 -0.83187342E-01 -0.24020080E-01  0.27057445E-01  0.82170755E+00
 -0.12471491E+00 -0.17876774E+00 -0.71481466E-01  0.27813890E-02
 -0.87954462E-01 -0.34027167E-01 -0.52087925E-01 -0.90684928E-02
  0.43652612E-02 -0.33954412E+00 -0.28059763E+00 -0.48793940E-03
  0.57276785E-02 -0.32016949E-02  0.50360453E-02  0.29207736E-02
  0.43764631E-02  0.85188970E-02  0.30349517E+00 -0.33877456E+00
 -0.28169502E-02 -0.11583041E-01  0.14881251E-02 -0.76294243E-02
 -0.18964120E-02  0.11345063E-01 -0.12247943E-01  0.17714764E+00
 -0.34096591E-01 -0.22695521E-01  0.67024946E-01 -0.39165456E-01
 -0.30592240E-01  0.23541644E-01  0.10291561E-01  0.50195772E-01
  0.15112162E+00  0.20722289E+00  0.34769017E-01 -0.29959410E-01
  0.41639198E-01 -0.29532194E-01  0.25578802E-01  0.78463852E-01
 -0.60606830E-01  0.10363140E+01  0.86959022E+00  0.15487760E+00
 -0.99790514E-01  0.41185062E-01  0.15034963E-01 -0.47623415E-01
 -0.14509767E+00 -0.57434636E+00 -0.97933841E+00  0.12581738E+01
  0.25207505E-01  0.18004078E+00 -0.21284508E-01  0.77311523E-01
  0.64989805E-01 -0.20855136E+00  0.47468439E+00 -0.10885420E+01
  0.38821119E+00  0.23283724E+00 -0.50951570E+00  0.23506916E+00
  0.35243027E-01 -0.17403509E+00 -0.23718674E-01  0.26270485E+00
 -0.70497757E+00 -0.13304205E+01 -0.53473514E+00  0.28150737E+00
 -0.26304519E+00  0.18870258E+00 -0.23507074E+00 -0.43555260E+00
  0.11272908E+00 -0.99514478E+00 -0.34449831E+00 -0.71797234E+00
  0.18339764E+00 -0.18274480E+00 -0.63537359E-01  0.10146952E+00
  0.48926973E+00  0.20371647E+01  0.22109608E+00 -0.20750751E+01
  0.11111617E+00 -0.56142098E+00  0.42209644E-01 -0.19956110E+00
 -0.19299474E+00  0.54810613E+00 -0.14952497E+01  0.17684420E+01
 -0.49218816E+00 -0.28709847E+00  0.11091633E+01 -0.42815655E+00
  0.12084532E+00  0.37503195E+00 -0.81880510E-01 -0.14637736E+01
  0.10478173E+01  0.26719482E+01  0.13296671E+01 -0.46114391E+00
  0.65784061E+00 -0.44182307E+00  0.56460422E+00  0.67381424E+00
 -0.28567558E-01  0.46754569E+00  0.17383932E+00  0.67441458E+00
 -0.10554821E+00  0.19837099E+00  0.47730748E-01 -0.50233286E-01
 -0.40128088E+00 -0.17196780E+01  0.35429364E+00  0.14362478E+01
 -0.16386370E+00  0.45979801E+00 -0.21841004E-01  0.13400900E+00
  0.14516471E+00 -0.39125723E+00  0.10732861E+01 -0.75785559E+00
  0.52866328E+00  0.71640015E-01 -0.73546070E+00  0.24522775E+00
 -0.13535357E+00 -0.22979882E+00  0.11654175E+00  0.15114307E+01
 -0.77876270E+00 -0.15880040E+01 -0.89949375E+00  0.22964896E+00
 -0.49463129E+00  0.30698770E+00 -0.40895748E+00 -0.29977864E+00
 -0.79477392E-02 -0.18472306E-01 -0.12967196E-01  0.94843686E-01
 -0.88151097E-01 -0.51070820E-02  0.13504691E-01 -0.41395505E-02
  0.24751082E-03 -0.44946186E-02 -0.16740741E-01 -0.41124821E-02
  0.76202445E-01  0.10344875E+00 -0.22537799E-02  0.43183677E-02
  0.64705717E-04 -0.59640518E-03  0.95618188E-01  0.92954643E-01
  0.61767258E-01 -0.79024971E-01  0.11346288E+00  0.15616628E-01
 -0.56508444E-02  0.42031710E-02  0.24400151E-02  0.96911378E-02
  0.29432038E-01 -0.46471480E-01 -0.12849206E+00  0.22337720E-01
  0.15172202E-01  0.14756575E-01 -0.10275276E-01  0.32632597E-01
  0.90240724E-02  0.98447263E-01  0.13910586E+00 -0.49684674E+00
  0.73422432E-01  0.23828601E-02  0.33573527E-02 -0.72285314E-02
 -0.70686333E-01 -0.16957556E+00  0.50366662E-01 -0.11485599E+00
 -0.34002475E-01 -0.50488788E+00 -0.42284265E-01  0.40896662E-01
 -0.22395281E-02 -0.41483179E-01 -0.39100447E+00 -0.52364653E+00
  0.81161149E-02  0.23826461E+00 -0.69935983E+00 -0.49828894E-01
  0.58817081E-01 -0.30699247E-01  0.18457999E-02  0.18260168E+00
  0.12305916E-01  0.35234401E+00  0.78882331E+00  0.17531560E+00
  0.12401869E-01 -0.94772577E-01  0.70517533E-01 -0.18616916E+00
 -0.20249624E-01 -0.18173020E+00 -0.28802204E+00  0.27763468E+00
 -0.33017457E+00 -0.40717524E-01 -0.36766961E-01  0.36675006E-01
  0.13604657E+00  0.24803014E+00 -0.15678066E+00  0.20198596E+00
  0.30329382E+00  0.25746179E+00  0.61767373E-01 -0.93926676E-01
  0.18352004E-01  0.62546611E-01  0.35427305E+00  0.75491345E+00
 -0.11663890E+00 -0.31980485E+00  0.90525955E+00  0.89059651E-01
 -0.78885198E-01  0.31197920E-01 -0.51024291E-02 -0.33548266E+00
  0.36326097E-03 -0.39684543E+00 -0.10250444E+01 -0.45261121E+00
 -0.34287624E-01  0.12944756E+00 -0.95721245E-01  0.19820654E+00
 -0.17688448E-01  0.15564424E-02  0.39224285E-02 -0.38294392E-02
 -0.75140484E-02  0.59528701E-01 -0.48654277E-01 -0.22800365E-02
 -0.31075822E-02 -0.96650571E-02 -0.21461817E-01  0.77744684E-03
  0.16463974E-02 -0.11097819E-01  0.51459324E-01  0.68256915E-01
  0.39644502E-02 -0.15337553E-02  0.34351688E-01  0.43128196E-01
  0.19956019E-01 -0.36301591E-01  0.99364556E-02 -0.61444480E-01
 -0.24400519E-01  0.44092606E-03  0.13028904E-02  0.22622351E-01
  0.11014454E-01 -0.81500672E-02 -0.17104018E-01 -0.29482946E-01
  0.26210615E-01 -0.75117707E-01 -0.28545759E-03  0.11840698E-01
  0.17646829E-01 -0.77693105E-01  0.38775124E-02  0.28927619E-01
  0.27532191E-02 -0.16366033E+00 -0.96197546E-01  0.21273760E-01
  0.86615868E-02  0.72159092E-02  0.12788318E-01 -0.31918742E-01
  0.10852542E-01  0.17516691E-01  0.12468153E+00 -0.17470153E+00
 -0.41061863E-02 -0.12752777E-02 -0.18442728E-01 -0.91943741E-02
  0.67788698E-02  0.14435091E-03  0.78480057E-02  0.98523393E-04
  0.22894251E-02  0.25241951E-01  0.15407711E-01 -0.16817288E-01
  0.31028625E-02 -0.10441542E-01 -0.79444088E-02 -0.17821642E-02
  0.52367500E-03  0.82076304E-02 -0.18905921E-01  0.29213514E-01
  0.44744343E-01 -0.13247139E-02 -0.37604000E-02 -0.16222805E-01
 -0.89065693E-02 -0.51037152E-02 -0.28314355E-02  0.18366750E-01
 -0.27277078E-01  0.19684860E-01 -0.35009183E-01  0.23218997E-01
  0.28978944E-01 -0.10054998E-01 -0.95502064E-02 -0.97779632E-02
  0.31590559E-01  0.18811367E-01  0.27152249E-02 -0.10953412E-01
  0.43081823E-02  0.26744683E-02  0.12518663E-02  0.79071671E-02
 -0.18357652E-02 -0.90767108E-02  0.21241112E-02  0.64085424E-02
  0.12395337E-01 -0.43195114E-02  0.27304080E-02 -0.55480227E-02
  0.65472908E-02  0.11660622E-02 -0.26218849E-02 -0.10962780E-02
  0.18541917E-03  0.11536263E-01  0.10362317E-01  0.24194026E-02
 -0.11380969E-02  0.27860261E-02  0.36632174E-03 -0.13429243E-02
  0.37920708E-02  0.48007779E-02  0.10027206E-02 -0.10543190E-01
  0.72369953E-02 -0.16516770E-02  0.35164722E-02  0.81353867E-03
 -0.30095526E-02  0.13707986E-02
