  0.58184547E+01  0.57026278E-01 -0.92279553E-01  0.19769210E-02
 -0.63549983E-02  0.41342457E-03 -0.16677530E-01  0.29840271E-02
  0.19395284E-01 -0.31526906E-02  0.83086155E-02 -0.21525295E-01
 -0.12466763E-02  0.10098133E+01 -0.13401216E+00 -0.33394372E+00
  0.53832471E+00 -0.33256578E+00 -0.14199048E+00  0.17917544E+00
  0.53553917E-01  0.36476403E+00 -0.17950524E+00  0.83029047E-02
  0.52691005E-01 -0.10528487E+00  0.10512217E+02 -0.11169873E+01
  0.69445848E-01 -0.11768399E+01  0.15896692E+01 -0.46408105E+00
  0.20050450E+00 -0.11498709E+00 -0.57279086E+00 -0.55499066E-01
 -0.22052054E+00  0.46984807E+00 -0.40550120E-02 -0.88619490E+01
  0.20526533E+01  0.73109612E+01 -0.79561610E+01  0.10884787E+02
  0.16878910E+01 -0.36661749E+01 -0.14041632E+01 -0.40023384E+01
  0.28041878E+01  0.11619292E+01 -0.47040588E+00  0.75334054E+00
 -0.62287872E+02  0.10522942E+02  0.70986331E+00  0.65067167E+01
 -0.11479046E+02  0.16810987E+01  0.92432690E+00 -0.25512183E+00
  0.36646881E+01 -0.23676343E+00  0.22571782E-01 -0.15189877E+01
  0.11747857E+01 -0.51741154E+02 -0.26478224E+02 -0.41005920E+02
  0.41161316E+02 -0.59304092E+02 -0.69479566E+01  0.18469709E+02
  0.71893797E+01  0.17059673E+02 -0.13025753E+02 -0.89780140E+01
  0.14681501E+01  0.57374662E+00  0.13726007E+03 -0.30932434E+02
  0.32160759E+01 -0.12439871E+02  0.30461212E+02 -0.47828904E+00
 -0.68936381E+01  0.25059500E+01 -0.91692266E+01  0.18327304E+01
  0.26999156E+01  0.10919600E+01 -0.47839508E+01  0.24011166E+03
  0.88412567E+02  0.86547073E+02 -0.93710800E+02  0.12796276E+03
  0.12891209E+02 -0.38673935E+02 -0.13718104E+02 -0.34361610E+02
  0.25967360E+02  0.23587969E+02 -0.25956812E+01 -0.78749738E+01
 -0.15224947E+03  0.34043213E+02 -0.10899737E+02  0.94556570E+01
 -0.33112152E+02 -0.28386929E+01  0.11093059E+02 -0.39166229E+01
  0.96845121E+01 -0.29332972E+01 -0.52627831E+01  0.10346909E+01
  0.64608560E+01 -0.31515063E+03 -0.10496171E+03 -0.78569519E+02
  0.95572739E+02 -0.12133441E+03 -0.10754656E+02  0.36431686E+02
  0.10801248E+02  0.32190323E+02 -0.23463760E+02 -0.25738008E+02
  0.27011602E+01  0.12155418E+02  0.65124084E+02 -0.12487495E+02
  0.69259710E+01 -0.23780632E+01  0.12499528E+02  0.21069336E+01
 -0.53715773E+01  0.17919512E+01 -0.36225002E+01  0.14143246E+01
  0.27828605E+01 -0.10895596E+01 -0.28614464E+01  0.13440363E+03
  0.41123302E+02  0.26135241E+02 -0.35684418E+02  0.42126480E+02
  0.32188385E+01 -0.12763023E+02 -0.28629272E+01 -0.11248033E+02
  0.79024081E+01  0.99840336E+01 -0.11786461E+01 -0.55230818E+01
  0.46197318E-01  0.18396910E+01  0.18488532E+01 -0.72137296E-01
 -0.22965061E-01  0.49167208E-01 -0.88025220E-02 -0.14172700E-02
  0.23798386E-02  0.10697533E-01 -0.86828211E-03 -0.11820205E-01
 -0.45507960E-02 -0.34407905E+00 -0.19840240E+01  0.18451529E+01
 -0.71499109E-01 -0.29341158E-01 -0.38065256E-02  0.12800082E-02
  0.35247199E-01 -0.29336328E-01 -0.28935508E-02  0.34494631E-01
  0.21810072E-01 -0.35707127E-01 -0.14954213E+01  0.16685065E+01
  0.26021440E+01 -0.25061375E-01 -0.11775346E+00  0.18140525E+00
  0.39146900E+00 -0.52104045E-01  0.17152113E+00 -0.24431723E+00
  0.83082139E-01  0.10321480E+00 -0.50523303E-01 -0.29371033E+01
 -0.11318465E+01  0.17996330E+01 -0.12266656E+01  0.44546548E+00
 -0.17469049E-01  0.10839577E+00  0.13065223E+00 -0.14671957E+00
 -0.17891817E-01  0.82936771E-01 -0.53874254E-01  0.32858133E-01
  0.35966065E+01  0.80477695E+01  0.35369377E+01 -0.24907688E-01
  0.49452467E+01 -0.24985828E+01  0.10750399E+01  0.63011825E-01
 -0.19682702E+00  0.48551191E-01 -0.24114862E+00  0.44627547E-01
  0.18766768E+00 -0.88128072E+00 -0.42972250E+01  0.32859545E+01
  0.79657030E+00  0.30905216E+01  0.28533408E-01 -0.50964916E+00
 -0.72284162E+00  0.72344583E+00 -0.41555968E+00 -0.27640814E+00
 -0.11061144E+01 -0.24223340E+00  0.26371168E+02 -0.15519335E+02
 -0.16091354E+02 -0.61467061E+01  0.11827185E+02 -0.18683290E+01
 -0.10109256E+02 -0.41066775E+00 -0.26999035E+01  0.11567603E+01
 -0.66600841E+00 -0.19529314E+01  0.17002130E+00  0.52747940E+02
 -0.59905577E+01 -0.19065031E+02  0.19325468E+02 -0.37808800E+01
  0.25225878E+01 -0.50770384E+00 -0.24967108E+01  0.18975935E+01
  0.15414753E+01  0.46599284E+00  0.26762016E+01 -0.23129797E+01
 -0.29581636E+02 -0.67340530E+02  0.28578779E+02 -0.18400337E+01
 -0.45590836E+02  0.19642668E+02 -0.11388482E+02 -0.14384050E+01
  0.23746014E+01 -0.25869806E+01  0.12232533E+01 -0.22738206E+00
 -0.13948898E+01  0.25422516E+02 -0.24761141E+02 -0.18647614E+02
 -0.35908461E+01 -0.27576841E+02  0.63180453E+00  0.12264185E+01
  0.73593292E+01 -0.56782942E+01  0.42023592E+01  0.94908339E+00
  0.99610100E+01  0.74102950E+01 -0.13301099E+03  0.29004532E+02
  0.96729050E+02  0.52969925E+02 -0.57015472E+02  0.43563184E+00
  0.61022587E+02 -0.60143489E-01  0.14871104E+02  0.36482077E+01
  0.28649282E+01  0.86638842E+01 -0.38194208E+01 -0.28812793E+03
  0.46469360E+02  0.46227020E+02 -0.10875104E+03 -0.70202541E+00
 -0.15389409E+02  0.14878043E+01  0.11239145E+02 -0.60284505E+01
 -0.76406479E+01 -0.82917614E+01 -0.18456881E+02  0.17502775E+02
  0.90780685E+02  0.17434750E+03 -0.17242982E+03  0.74431643E+01
  0.14255405E+03 -0.58141235E+02  0.39145477E+02  0.34620705E+01
 -0.12430976E+02  0.10840865E+02 -0.43649893E-01  0.59502614E+00
  0.22078133E+01 -0.10493084E+03  0.18064040E+03  0.12570059E+02
  0.93478651E+01  0.80625305E+02 -0.71573347E+00  0.36804311E+01
 -0.22530624E+02  0.18506760E+02 -0.12973786E+02 -0.15200814E+01
 -0.31336437E+02 -0.28821775E+02  0.29102222E+03 -0.17519775E+02
 -0.29855054E+03 -0.15717355E+03  0.88891266E+02  0.25252762E+02
 -0.15087781E+03  0.76023393E+01 -0.37483150E+02 -0.23462996E+02
 -0.69535489E+01 -0.14723260E+02  0.18481215E+02  0.65221851E+03
 -0.11774995E+03 -0.61445255E+02  0.26809058E+03  0.39994282E+02
  0.31199492E+02 -0.64933023E+01 -0.18023026E+02  0.64583664E+01
  0.12623926E+02  0.27021164E+02  0.45272430E+02 -0.46571915E+02
 -0.11661732E+03 -0.21271246E+03  0.27106592E+03 -0.73082743E+01
 -0.18257878E+03  0.73000687E+02 -0.54757523E+02 -0.16007289E+01
  0.22605637E+02 -0.14365944E+02 -0.50904427E+01 -0.98563862E+00
  0.61151135E+00  0.15628786E+03 -0.29974243E+03  0.10640743E+02
 -0.10775610E+02 -0.95066605E+02 -0.36515398E+01 -0.11473594E+02
  0.27438047E+02 -0.24867659E+02  0.15603788E+02  0.12937164E+01
  0.39795895E+02  0.39510040E+02 -0.29016138E+03  0.28823547E+01
  0.39856247E+03  0.19402602E+03 -0.45091351E+02 -0.53616596E+02
  0.16660764E+03 -0.15165431E+02  0.42398972E+02  0.36244064E+02
  0.75232463E+01  0.95507259E+01 -0.28676893E+02 -0.64159644E+03
  0.12781444E+03  0.57046246E+02 -0.29240649E+03 -0.71489220E+02
 -0.24908297E+02  0.13778470E+02  0.10944452E+02 -0.66494685E+00
 -0.74688768E+01 -0.32826691E+02 -0.46453720E+02  0.50829021E+02
  0.52968674E+02  0.99466309E+02 -0.13427261E+03  0.10737038E+01
  0.81903275E+02 -0.32730850E+02  0.26825424E+02 -0.69327599E+00
 -0.12845870E+02  0.59912968E+01  0.45008116E+01  0.76359069E+00
 -0.18522652E+01 -0.80060036E+02  0.15137988E+03 -0.81274099E+01
  0.41646919E+01  0.38812271E+02  0.42529478E+01  0.73921490E+01
 -0.11849991E+02  0.11516631E+02 -0.64914274E+01 -0.51537508E+00
 -0.17529144E+02 -0.18062864E+02  0.10677108E+03  0.52536047E+00
 -0.18758054E+03 -0.85391647E+02  0.35786375E+00  0.30250122E+02
 -0.67851501E+02  0.84298773E+01 -0.17312012E+02 -0.17777067E+02
 -0.27602575E+01 -0.14503183E+01  0.14062240E+02  0.22694662E+03
 -0.50785786E+02 -0.25865496E+02  0.11572224E+03  0.35236389E+02
  0.62496061E+01 -0.90702009E+01 -0.16877421E+01 -0.16750355E+01
  0.10357895E+01  0.13722245E+02  0.17021439E+02 -0.19445269E+02
 -0.39433222E-01 -0.21142438E+00 -0.90724342E-02 -0.83350813E+00
 -0.50699193E-01  0.27291071E-01 -0.22223894E-01 -0.42128101E-01
  0.17714038E-01  0.50699495E-01 -0.18712536E-01 -0.25406673E-02
  0.20049294E-01 -0.49931604E-01 -0.20490993E-01  0.89790583E-01
  0.51811717E-01 -0.87662053E+00 -0.31257950E-01  0.40552099E-02
 -0.14721374E-01 -0.69894157E-02 -0.72437227E-02  0.23188518E-01
  0.26874656E-01 -0.39877024E-01 -0.24794407E+00 -0.22231765E+00
  0.30068851E+00  0.26426488E+00  0.85828662E+00  0.70318043E-01
 -0.19365218E+00 -0.67670643E-01 -0.44199413E+00 -0.11491102E+00
 -0.18138404E+00  0.90832114E-02  0.69318712E-02  0.56248826E+00
  0.47823495E+00  0.41573852E+00 -0.15119504E+01  0.67963123E-01
 -0.13004094E+00  0.64840436E-01 -0.91815054E-01 -0.15601903E+00
 -0.78684449E-01 -0.90477407E-01  0.76826751E-01 -0.65387964E-01
  0.36128533E+01  0.25138474E+01  0.35854375E+00  0.26517675E+01
  0.23037329E+01 -0.11147919E+01 -0.63770419E+00  0.86852974E+00
 -0.41232473E+00 -0.61307818E+00  0.48212728E+00 -0.85765898E-01
 -0.57749569E+00  0.26269417E+01 -0.84287786E+00  0.11433278E+01
 -0.36928182E+01  0.54051332E+01  0.74675167E+00 -0.73716521E+00
 -0.66338837E-01  0.11560965E+01 -0.29391348E+00  0.12733983E+00
 -0.10972691E+01  0.59222382E+00  0.34999063E+01  0.44444332E+01
 -0.94481927E+00 -0.35326796E+01 -0.27436819E+01  0.56982708E+00
  0.76956093E-01  0.31902784E+00  0.52106791E+01  0.92866045E+00
  0.87636429E+00 -0.33926576E+00 -0.11445961E+01 -0.32386551E+01
 -0.44973116E+01 -0.15676622E+01  0.10158686E+02  0.16184866E+00
  0.16182851E+01 -0.21049383E+00 -0.28675807E+00  0.18338079E+01
  0.79065192E+00  0.12128630E+01 -0.13835087E+01 -0.13644751E-01
 -0.20781830E+02  0.17002144E+01 -0.11406075E+02  0.90912104E+01
  0.13688050E+02  0.40151911E+01  0.44199944E+01 -0.25502863E+01
  0.19699677E+01  0.12705001E+01 -0.20803690E+01  0.20040417E+01
  0.38943081E+01 -0.19840210E+02  0.19784559E+02 -0.86485300E+01
 -0.49333057E+01 -0.39710071E+01 -0.40674076E+01  0.28137224E+01
  0.38876524E+01 -0.90402203E+01  0.19475240E+01 -0.10716801E+01
  0.62051377E+01 -0.18414354E+01 -0.83312187E+01 -0.13289579E+02
 -0.21736002E+01  0.84501009E+01  0.49111623E+00 -0.37395916E+01
  0.19115798E+01 -0.31825442E-01 -0.13818623E+02 -0.18343800E+01
 -0.11181917E+01  0.80240744E+00  0.43642979E+01  0.33570623E+01
  0.12437586E+02  0.45811825E+01 -0.16603790E+02  0.22749799E+00
 -0.40944519E+01 -0.53237623E+00  0.23649321E+01 -0.41487675E+01
 -0.17448483E+01 -0.36165752E+01  0.43271370E+01  0.10559273E+01
  0.39056717E+02 -0.16090925E+02  0.33891582E+02 -0.35210052E+02
 -0.50438084E+02 -0.49294519E+01 -0.90522985E+01  0.19701452E+01
 -0.41518726E+01 -0.19429386E+00  0.29413278E+01 -0.64302464E+01
 -0.75884624E+01  0.49585617E+02 -0.54486115E+02  0.14613009E+02
  0.31883024E+02 -0.19175352E+02  0.78750353E+01 -0.41738634E+01
 -0.11004766E+02  0.19877581E+02 -0.26470735E+01  0.21634009E+01
 -0.10771996E+02  0.26160250E+01  0.42416420E+01  0.10615758E+02
  0.38284781E+01 -0.26582878E+01  0.61848516E+01  0.39846961E+01
 -0.23324947E+01 -0.27493328E+00  0.98930330E+01  0.91430855E+00
  0.42881784E+00 -0.45336175E+00 -0.38754072E+01  0.24860697E+01
 -0.11103156E+02 -0.55986366E+01  0.30626106E+01  0.12912282E+01
  0.31475737E+01  0.94185495E+00 -0.24471550E+01  0.26365433E+01
  0.11146899E+01  0.30409727E+01 -0.34792864E+01 -0.11173525E+01
 -0.24813004E+02  0.12293332E+02 -0.24448641E+02  0.25972626E+02
  0.41211086E+02  0.13715390E+01  0.59663386E+01 -0.71985543E-01
  0.29825640E+01 -0.41931191E+00 -0.13509988E+01  0.51593590E+01
  0.43710918E+01 -0.40055679E+02  0.40998569E+02 -0.62064981E+01
 -0.28469559E+02  0.22959061E+02 -0.49932976E+01  0.19243964E+01
  0.76674232E+01 -0.12809522E+02  0.61497426E+00 -0.14364127E+01
  0.57304020E+01 -0.13400354E+01 -0.21295027E+00 -0.11400111E+00
 -0.14825791E+00  0.73622167E-01  0.64809799E-01 -0.29826677E+00
 -0.60644531E+00 -0.13423301E-01  0.10754850E-01  0.98052919E-02
 -0.27152034E-02 -0.18311009E-01  0.64233541E-02 -0.17358117E-01
  0.90460539E-01 -0.55983935E-01 -0.37680585E-02  0.10464078E+00
  0.60645211E+00 -0.32411683E+00 -0.19527394E-01  0.57433564E-01
 -0.14313876E-01  0.14264598E-01 -0.12788295E-01  0.12462892E-01
  0.72629392E-01  0.26425886E+00 -0.72310209E-01  0.14027590E+00
 -0.22800758E+00 -0.82698578E+00 -0.59944493E+00  0.41647561E-01
  0.10132379E+00  0.10920781E+00 -0.92539191E-01  0.54342560E-01
  0.23273787E-01 -0.79490066E-01 -0.41849073E-01  0.11703408E+00
  0.22500436E+00  0.79865992E-01  0.79547960E+00 -0.68940187E+00
 -0.91365695E-01  0.26474411E-01  0.18633839E-01 -0.69830723E-01
  0.42015348E-01  0.70129670E-02  0.20651808E+01  0.10757017E+01
  0.79591483E+00 -0.10709343E+01 -0.39959529E+00  0.12449456E+01
  0.65018201E+00  0.57454801E+00 -0.10787250E+00 -0.11827229E+00
  0.89393549E-01  0.38926965E+00  0.20278770E-01 -0.84885854E+00
  0.50201148E-01  0.41724557E+00  0.10930062E+00 -0.19860848E+01
 -0.40959153E+00  0.14579868E+01  0.10777472E+00  0.18702918E+00
  0.58261953E-01 -0.15377998E+00  0.27000564E+00 -0.32803480E-01
  0.41750297E+00 -0.89985055E+00  0.11675126E+00  0.33188917E-01
  0.56400406E+00  0.12467127E+01  0.11199265E+01 -0.13293042E-01
 -0.56087691E-01 -0.28695667E+00  0.14087246E+00 -0.16224992E+00
 -0.25811439E-01  0.51898807E+00  0.17738798E+00 -0.20662890E+00
 -0.74402368E+00 -0.51481463E-02 -0.16159161E+01  0.10972347E+01
  0.44918299E-01 -0.20699678E+00 -0.11631240E-01  0.20945828E+00
 -0.16005200E+00 -0.11305243E+00 -0.41412516E+01 -0.14561824E+01
 -0.11091290E+01  0.17685612E+01  0.66921711E-01 -0.16768464E+01
  0.23649099E+00 -0.10593185E+01  0.12860221E+00  0.10053812E+00
 -0.29987156E+00 -0.75887215E+00  0.55327028E-01  0.18062496E+01
  0.15113787E+00 -0.36903124E-01  0.28656238E+00  0.33028460E+01
 -0.43000469E+00 -0.17351263E+01 -0.96321523E-01 -0.62929440E+00
 -0.54888733E-01  0.19858766E+00 -0.39517489E+00 -0.23517720E-01
  0.74075341E-01  0.55286419E-01  0.37950136E-01  0.51930588E-01
  0.40860217E-01 -0.80779605E-02 -0.85725710E-02  0.18911600E+00
 -0.20170496E+00  0.79165362E-02  0.14078500E-01 -0.48967567E-03
  0.23352634E-01  0.89454830E-01  0.45219739E-02  0.19925095E-01
 -0.36571357E-01  0.47071725E-02 -0.22226088E-01  0.12251129E-01
  0.23481011E+00  0.19869670E+00 -0.52124937E-02 -0.27196895E-01
  0.11811547E-01  0.11335121E-01  0.20631571E+00 -0.40896397E-01
 -0.66134036E-01 -0.51769245E-01  0.11315650E+00 -0.29828817E-01
 -0.70822775E-01 -0.71775675E-01 -0.42620286E+00 -0.58472641E-01
 -0.11232208E-01 -0.11249759E-01  0.20316772E-01  0.17420188E-01
 -0.14574116E+00 -0.10202885E+00  0.72233789E-01  0.11322711E-01
 -0.20416331E-01 -0.24119224E-02  0.33355665E+00 -0.65747321E-01
 -0.34695773E-02 -0.40769737E-01  0.66911578E-01 -0.37780602E-01
  0.43868117E-01  0.14381091E+00 -0.61921757E-01 -0.12998655E-01
  0.31560201E-01  0.31114614E-02  0.38460433E-03 -0.28693315E-01
  0.34101970E-01  0.90243518E-01  0.18531388E+00 -0.13973087E-01
  0.10807763E-01  0.87856054E-01  0.35964798E-01  0.23326818E-01
 -0.84922135E-01 -0.19689236E-01  0.94046257E-02  0.14910233E-02
  0.26861504E-01 -0.73656917E-01 -0.17092834E+00  0.78958333E-01
  0.87024570E-02  0.12014929E-01  0.82137808E-02 -0.21466319E-01
  0.53214632E-01 -0.74789703E-01  0.19152006E-01  0.21119364E-01
  0.25541725E-01  0.88134204E-03 -0.14540545E-01  0.78659169E-02
  0.15383034E-01 -0.64573228E-01  0.21328628E-01  0.28671172E-01
  0.20090416E-01 -0.94851203E-01 -0.24305642E-01 -0.72831869E-01
 -0.18191809E-01 -0.27933950E-01  0.21245508E-01 -0.38015399E-01
  0.13354954E-01  0.61733276E-02  0.53486861E-02 -0.67182183E-01
  0.49329065E-02  0.14485020E-01 -0.57947926E-01 -0.16713042E-01
  0.52156746E-02  0.26821878E-01 -0.57450016E-02 -0.63059926E-02
 -0.14616559E-01 -0.94541977E-03 -0.15653398E-01 -0.63756146E-02
  0.19463092E-02  0.91823868E-01  0.34876380E-01 -0.81078410E-02
  0.40082078E-01  0.11814688E-01 -0.21329772E-01  0.22458939E-01
  0.65466762E-02  0.32364109E-02 -0.13744369E-01  0.66302340E-02
  0.16155705E-01 -0.14738604E-01  0.45109168E-01  0.52861501E-01
 -0.88001661E-01  0.24178792E-01 -0.26224429E-01 -0.27569726E-01
  0.28009564E-02 -0.12213376E-01 -0.14918842E-02  0.38230043E-01
 -0.10143310E-01  0.97960308E-02  0.72819591E-02 -0.12117779E+00
  0.23717243E-01 -0.16449519E-01  0.21570390E-01 -0.11265769E-02
  0.23510953E-01  0.17620742E-01 -0.14561802E-01  0.44145957E-02
 -0.19181984E-01  0.15150579E-01  0.23060733E-01 -0.34930815E-02
  0.85668230E+01  0.58971167E-01 -0.37359368E-01  0.98172948E-02
  0.60634506E-02 -0.19980330E-01 -0.32437317E-01  0.73017143E-02
  0.21622822E-01 -0.31204394E-02  0.86839311E-02 -0.15189710E-01
  0.15739938E-02  0.15422639E+01 -0.45887977E+00 -0.63496363E+00
  0.17954224E+00 -0.36354399E+00 -0.81500530E-01  0.53280364E-02
  0.13243175E+00  0.38387775E+00 -0.11102081E+00 -0.78610063E-01
  0.94472528E-01 -0.58259506E-01  0.24310486E+02 -0.11059132E+01
 -0.73916429E+00 -0.92551416E+00  0.17832870E+01  0.35105863E+00
  0.37704727E+00 -0.31123799E+00 -0.53970361E+00  0.86808130E-02
 -0.72665691E-01  0.46467739E+00 -0.98924160E-01  0.20755554E+02
  0.67352266E+01  0.14065328E+02 -0.25990703E+01  0.10409377E+02
  0.16016331E+01 -0.47564012E+00 -0.34755878E+01 -0.49684534E+01
  0.15748023E+01  0.26321306E+01 -0.12655039E+01  0.15727633E+00
 -0.12931139E+03  0.12252738E+02  0.60598216E+01  0.50476084E+01
 -0.11773267E+02 -0.44770451E+01  0.58385706E+00  0.23724537E+01
  0.37232213E+01 -0.10170099E+01 -0.81260867E-01 -0.29869394E+01
  0.22409637E+01 -0.23669112E+03 -0.51905823E+02 -0.72058388E+02
  0.12511719E+02 -0.56770981E+02 -0.10931894E+02  0.33293867E+01
  0.20718519E+02  0.24317991E+02 -0.57881889E+01 -0.15459871E+02
  0.46247511E+01  0.34875410E+01  0.24901990E+03 -0.39882584E+02
 -0.83957405E+01 -0.10404232E+02  0.27809797E+02  0.16726303E+02
 -0.68507929E+01 -0.69119287E+01 -0.97388630E+01  0.47765846E+01
  0.10716476E+01  0.72030778E+01 -0.82405844E+01  0.65161255E+03
  0.14923308E+03  0.14101414E+03 -0.29154615E+02  0.12519636E+03
  0.29351564E+02 -0.84194260E+01 -0.48260620E+02 -0.53140240E+02
  0.90673313E+01  0.35299225E+02 -0.72856526E+01 -0.14410470E+02
 -0.23240266E+03  0.45167831E+02 -0.96814609E+00  0.99426565E+01
 -0.26336681E+02 -0.23381851E+02  0.11163599E+02  0.86249838E+01
  0.10363331E+02 -0.69799466E+01 -0.19014367E+01 -0.71312881E+01
  0.10706991E+02 -0.70311963E+03 -0.17120168E+03 -0.11967139E+03
  0.32664337E+02 -0.12050853E+03 -0.33125168E+02  0.86441698E+01
  0.48691647E+02  0.51921906E+02 -0.65182600E+01 -0.34950241E+02
  0.55114870E+01  0.18803881E+02  0.85038696E+02 -0.16290754E+02
  0.40023508E+01 -0.37510369E+01  0.83846464E+01  0.10919796E+02
 -0.52057095E+01 -0.38280964E+01 -0.38365116E+01  0.32329712E+01
  0.99229783E+00  0.24394760E+01 -0.46375208E+01  0.26612109E+03
  0.67721451E+02  0.37346924E+02 -0.13712145E+02  0.41968536E+02
  0.13200320E+02 -0.30124369E+01 -0.17847168E+02 -0.18521820E+02
  0.17858782E+01  0.12569484E+02 -0.17031459E+01 -0.80002708E+01
 -0.13380323E+00  0.13366909E+01  0.19891348E+01 -0.10753993E-01
  0.60303461E-01  0.12918174E-01  0.21262078E-01 -0.86736679E-02
 -0.13964106E-01  0.11481033E-01  0.10142982E-01  0.72076619E-02
 -0.85019991E-02 -0.14243265E-01 -0.21352167E+01  0.13255062E+01
 -0.50178140E-01 -0.54384332E-01  0.46576776E-01  0.34636784E-01
  0.48959590E-02 -0.16821535E-01  0.46431459E-02  0.12051068E-01
  0.19954726E-01 -0.32330859E-01 -0.12649831E+01  0.14815664E+01
  0.32681105E+01 -0.28774256E+00  0.42832845E+00  0.53366369E+00
  0.69917518E+00 -0.12640500E+00  0.27914149E+00 -0.86231768E-01
  0.41828956E-01  0.22610454E+00 -0.11857754E+00 -0.59289956E+00
 -0.26590745E+01  0.71710646E+00 -0.80467069E+00  0.91069090E+00
  0.17542487E+00  0.10409194E+00 -0.57189096E-01  0.43423325E-01
 -0.84960878E-01 -0.95633030E-01  0.33903424E-01 -0.36507253E-01
  0.83079939E+01  0.22010695E+02 -0.11524427E+02 -0.11183745E+00
  0.25016727E+01 -0.13266134E+01  0.22817476E+00  0.46875328E+00
  0.34386235E+00  0.40068370E+00 -0.31280607E+00 -0.36988360E+00
  0.16799916E+00 -0.83424854E+01  0.11889293E+02  0.16917753E+02
  0.39813343E+00  0.21293640E+01 -0.16580629E+00 -0.91171312E+00
 -0.19491870E-01  0.62579691E+00 -0.31269866E+00 -0.14522403E+00
 -0.69244885E+00 -0.35517263E+00  0.23320496E+02  0.19454935E+01
 -0.32308594E+02 -0.22719014E+00 -0.26350050E+01 -0.75710702E+01
 -0.13849431E+02  0.13357114E+01 -0.52987833E+01 -0.12208443E+01
  0.56600362E+00 -0.38908498E+01  0.15157394E+01  0.16239502E+02
  0.26882660E+02  0.11697211E+02  0.13142451E+02 -0.13128712E+02
  0.12815475E+01 -0.26485262E+01  0.10252705E+01 -0.71769845E+00
  0.26684380E+01  0.33325870E+01  0.19368444E+00 -0.84864259E+00
 -0.65441605E+02 -0.12118098E+03  0.10928063E+03 -0.38240664E+01
 -0.23437609E+02  0.10801532E+02 -0.57041912E+01 -0.27291288E+01
 -0.15678358E+01 -0.73939705E+01  0.37768623E+00  0.33962661E+00
 -0.93000346E+00  0.93348358E+02 -0.10296486E+03 -0.70953468E+02
 -0.35590756E+00 -0.17237806E+02  0.94308913E-01  0.38772571E+01
  0.26037457E+01 -0.46013031E+01  0.14253416E+01  0.20683479E+01
  0.66785059E+01  0.57986803E+01 -0.11509791E+03 -0.40946976E+02
  0.20788942E+03  0.28071583E+02  0.24814013E+02  0.32777496E+02
  0.80104477E+02 -0.11489333E+02  0.29405245E+02  0.16883726E+02
 -0.67208633E+01  0.20167173E+02 -0.86552134E+01 -0.99561401E+02
 -0.15522028E+03 -0.83673126E+02 -0.80494247E+02  0.58310268E+02
 -0.12448786E+02  0.17183472E+02 -0.89103432E+01  0.53705997E+01
 -0.13733029E+02 -0.22880341E+02 -0.23245771E+01  0.86334391E+01
  0.17955624E+03  0.24499541E+03 -0.33905200E+03  0.16499298E+02
  0.74469528E+02 -0.33439667E+02  0.23443146E+02  0.36955309E+01
 -0.19126467E+00  0.27561247E+02  0.56984262E+01  0.44640989E+01
  0.42115945E+00 -0.30066260E+03  0.29662671E+03  0.81036789E+02
 -0.27805751E-01  0.43939407E+02  0.27983513E+01 -0.60298953E+01
 -0.10772778E+02  0.15233603E+02 -0.58941257E+00 -0.87549534E+01
 -0.21512070E+02 -0.19019287E+02  0.25668503E+03  0.95829285E+02
 -0.60892993E+03 -0.11896391E+03 -0.95018211E+02 -0.59214664E+02
 -0.19752924E+03  0.38122330E+02 -0.69384659E+02 -0.56728775E+02
  0.22776093E+02 -0.43739380E+02  0.22105665E+02  0.22645403E+03
  0.37045313E+03  0.17037305E+03  0.21269354E+03 -0.11409074E+03
  0.32559402E+02 -0.47628784E+02  0.30940628E+02 -0.16595901E+02
  0.25164564E+02  0.59392147E+02  0.48828716E+01 -0.25786682E+02
 -0.19930544E+03 -0.22929100E+03  0.46098508E+03 -0.23051147E+02
 -0.99358978E+02  0.43438583E+02 -0.36220840E+02  0.10952330E+01
  0.52028379E+01 -0.36286865E+02 -0.15389332E+02 -0.10731898E+02
  0.32523792E+01  0.36962793E+03 -0.36779367E+03 -0.39542663E+01
 -0.51138026E+00 -0.43776108E+02 -0.79711537E+01  0.35742664E+01
  0.16140488E+02 -0.21209717E+02 -0.38114672E+01  0.13219822E+02
  0.27240128E+02  0.23259232E+02 -0.26610742E+03 -0.69780014E+02
  0.81476440E+03  0.17288277E+03  0.13693071E+03  0.46457748E+02
  0.21848390E+03 -0.50798950E+02  0.72315247E+02  0.74823502E+02
 -0.31317856E+02  0.41232723E+02 -0.24342669E+02 -0.20460794E+03
 -0.41652856E+03 -0.12226570E+03 -0.24583488E+03  0.10287257E+03
 -0.36260223E+02  0.59697346E+02 -0.42112244E+02  0.20332169E+02
 -0.18127945E+02 -0.65813660E+02 -0.29394608E+01  0.30914228E+02
  0.77954071E+02  0.84637451E+02 -0.22712355E+03  0.10199259E+02
  0.47287094E+02 -0.19806791E+02  0.19231522E+02 -0.30108087E+01
 -0.38124542E+01  0.15798556E+02  0.10139494E+02  0.67266970E+01
 -0.32354670E+01 -0.15642979E+03  0.16548746E+03 -0.24017456E+02
  0.17524616E+00  0.14203983E+02  0.56363974E+01 -0.46004730E+00
 -0.83661394E+01  0.10115620E+02  0.35576584E+01 -0.64790506E+01
 -0.11826178E+02 -0.96805029E+01  0.10178647E+03  0.11225665E+02
 -0.39543845E+03 -0.84101151E+02 -0.65480942E+02 -0.12942044E+02
 -0.88712402E+02  0.23320221E+02 -0.27256409E+02 -0.34397598E+02
  0.15014293E+02 -0.13734140E+02  0.94665308E+01  0.60337917E+02
  0.17995731E+03  0.21066160E+02  0.10197302E+03 -0.35869064E+02
  0.15114551E+02 -0.27445206E+02  0.19399139E+02 -0.83749247E+01
  0.40309706E+01  0.26498032E+02 -0.13782136E-01 -0.13060989E+02
 -0.10923449E-01 -0.34306777E+00 -0.50401580E-01 -0.53487873E+00
  0.29230738E+00  0.21476945E-01  0.15144963E-01 -0.43948863E-01
 -0.17394179E-01  0.35130534E-01 -0.16292401E-01  0.19373260E-01
 -0.59662829E-03 -0.71579278E-01 -0.52842975E-01 -0.63118003E-02
 -0.39636707E+00 -0.73986322E+00  0.37425831E-02  0.59765220E-01
 -0.49655996E-02 -0.27551942E-02 -0.15596608E-01  0.61703692E-02
  0.14522820E-01 -0.32979958E-01 -0.84795356E-02  0.16810315E-02
 -0.11047077E+00 -0.18073320E+01  0.75538784E+00  0.17500804E+00
 -0.17733020E+00 -0.16572928E+00 -0.33800668E+00 -0.15694118E+00
 -0.16335551E+00  0.71416795E-01 -0.57195533E-01  0.38296199E+00
  0.77749258E+00 -0.32756321E-01 -0.16789722E+01 -0.18577414E+01
  0.17541359E+00 -0.14601539E-01  0.33322370E-02  0.29737126E-01
 -0.87182283E-01 -0.31497914E-01  0.12684082E-01 -0.11295189E-01
  0.23203261E+01  0.53199558E+01  0.16164664E+01 -0.67294288E+01
  0.70609217E+01 -0.22695799E+00 -0.15492887E+01  0.11764528E+01
  0.21189196E+00 -0.77632385E+00  0.94330907E-01 -0.52504992E+00
  0.80921412E-01  0.32638376E+01 -0.18616734E+00  0.25722711E+01
 -0.63221359E+01 -0.21414375E+01  0.87206262E+00 -0.12179785E+01
  0.13763861E+00  0.67562330E+00 -0.19984256E+00  0.40309739E+00
 -0.78906333E+00  0.50545210E+00  0.94253534E+00  0.12683753E+01
  0.62755954E+00  0.30156040E+01  0.10006475E+01  0.20007718E+00
  0.20150831E+00  0.14695405E+01  0.41846933E+01  0.12572117E+01
  0.65958399E+00 -0.71903503E+00 -0.69292152E+00 -0.96949643E+00
 -0.45164165E+01  0.29109013E+01  0.85274162E+01  0.41857910E+01
 -0.27851808E+00  0.91058570E+00 -0.63607663E+00 -0.55645529E-01
  0.10949479E+01  0.38305825E+00 -0.72221696E+00 -0.53886342E+00
 -0.11483660E+02 -0.18448809E+02 -0.25420227E+02  0.41966873E+02
 -0.18985962E+02 -0.14435633E+01  0.80026455E+01 -0.42318764E+01
 -0.10838451E+01  0.28619411E+01  0.61609662E+00  0.37960069E+01
 -0.52905315E+00 -0.17035339E+02  0.18621325E+02 -0.21966002E+02
  0.18735840E+02  0.16747009E+02 -0.54307671E+01  0.46619482E+01
  0.13719673E+01 -0.60610518E+01  0.19186600E+01 -0.33431864E+01
  0.48622255E+01 -0.19352444E+01 -0.21383028E+01 -0.43643160E+01
 -0.42401295E+01 -0.24073772E+01 -0.16128113E+02 -0.27644100E+01
  0.22688615E+00 -0.28903911E+01 -0.11218067E+02 -0.23697214E+01
 -0.47793251E+00  0.14431591E+01  0.33283548E+01 -0.29100380E+01
  0.97868328E+01 -0.62205763E+01 -0.72675920E+01 -0.31473618E+01
  0.19133314E+00 -0.38154783E+01  0.26445303E+01 -0.82178062E+00
 -0.30948789E+01 -0.84836000E+00  0.25783031E+01  0.23090551E+01
  0.19434113E+02  0.30117949E+02  0.67169952E+02 -0.83444626E+02
  0.97705097E+01  0.59132814E+01 -0.15886704E+02  0.57373362E+01
  0.21024208E+01 -0.35821979E+01 -0.25029049E+01 -0.88817778E+01
  0.14393606E+01  0.31481155E+02 -0.55233746E+02  0.44615509E+02
 -0.14347219E+02 -0.38026093E+02  0.13057509E+02 -0.83902416E+01
 -0.42683010E+01  0.14140668E+02 -0.35403109E+01  0.79202223E+01
 -0.92711287E+01  0.31921394E+01 -0.40178013E+00  0.42423429E+01
  0.44495773E+01  0.65041456E+01  0.24042873E+02  0.30938349E+01
 -0.44691342E+00  0.15059994E+01  0.77578292E+01  0.13139609E+01
 -0.14930588E+00 -0.67745125E+00 -0.30641334E+01  0.71513066E+01
 -0.80155258E+01  0.27227869E+01 -0.77887850E+01  0.47823057E+01
 -0.47966767E-01  0.38374760E+01 -0.23107653E+01  0.14483805E+01
  0.24450035E+01  0.82637250E+00 -0.23080864E+01 -0.19962348E+01
 -0.12261737E+02 -0.18203461E+02 -0.47682369E+02  0.55126308E+02
  0.94886637E+01 -0.50771365E+01  0.10601326E+02 -0.30876780E+01
 -0.16409187E+01  0.16010160E+01  0.18693399E+01  0.63582640E+01
 -0.12191840E+01 -0.22224457E+02  0.43476685E+02 -0.25098251E+02
 -0.41798449E+01  0.30020355E+02 -0.10327442E+02  0.55453873E+01
  0.28609171E+01 -0.91859646E+01  0.17712344E+01 -0.55576057E+01
  0.54289846E+01 -0.16860571E+01 -0.18644656E+00 -0.13026766E+00
 -0.51389337E-01  0.13972402E+00  0.26259441E-01 -0.48280841E+00
 -0.59422374E+00 -0.21665381E-01 -0.14493398E-01  0.15758835E-01
 -0.17352703E-02 -0.41003264E-02  0.18915858E-02  0.57341754E-01
  0.42945147E-01  0.96227340E-01 -0.34298085E-01  0.13546824E+00
  0.63187897E+00 -0.47779456E+00  0.20380679E-02  0.22282995E-01
 -0.25250018E-01  0.17265648E-01 -0.25108820E-01  0.94693340E-02
 -0.25878793E+00  0.28488117E+00 -0.16580705E+00  0.12818597E+00
  0.35997484E-01 -0.64699262E+00 -0.10717688E+01  0.10131289E+00
  0.16753370E+00  0.32581441E-01 -0.11407858E+00  0.59960645E-01
 -0.77041020E-02 -0.41792631E-01  0.13099883E+00  0.21938296E+00
 -0.11784482E+00  0.17003256E+00  0.11506062E+01 -0.71615911E+00
 -0.11056096E+00  0.15374935E+00  0.68769455E-01  0.45401081E-01
  0.56390651E-01  0.55900358E-01  0.28251829E+01  0.44229245E+00
 -0.81067187E+00 -0.12398359E+01 -0.28553765E-01  0.22159548E+01
 -0.54317737E+00  0.75851673E+00  0.27122670E+00 -0.17409933E+00
  0.50550707E-01  0.21512508E+00  0.78091852E-01 -0.14035777E+01
  0.84380841E+00 -0.64104086E+00  0.46829492E-01 -0.14327688E+01
  0.25394756E+00  0.19480609E+01 -0.91148973E-01  0.78488469E+00
  0.22460082E+00 -0.24968465E+00  0.46386966E+00 -0.64009475E-03
  0.98801070E+00 -0.11307431E+01  0.52810138E+00  0.87130725E-01
  0.50161202E-01 -0.13517044E+00  0.17106218E+01 -0.20004056E+00
 -0.23602612E+00 -0.27457481E-01  0.24470349E+00 -0.14111976E+00
  0.38745444E-01  0.47567672E+00 -0.22344863E+00 -0.75762653E+00
 -0.57572667E-01  0.84235661E-01 -0.19831992E+01  0.25760263E+00
  0.19424836E+00 -0.48381361E+00 -0.13142876E+00 -0.88607311E-01
 -0.23240805E+00 -0.17395240E+00 -0.52569551E+01  0.56680167E+00
  0.16630801E+01  0.17917032E+01 -0.68722159E+00 -0.39917281E+01
  0.18925160E+01 -0.13140192E+01 -0.42374140E+00  0.26679027E+00
 -0.19116408E+00 -0.40941292E+00 -0.66891670E-01  0.19922808E+01
 -0.13392372E+01  0.13449211E+01  0.34894937E+00  0.20699842E+01
 -0.15274906E+01 -0.31885910E+01  0.30454439E+00 -0.15603628E+01
 -0.34676233E+00  0.25211805E+00 -0.71817303E+00 -0.18247534E-01
  0.26140710E-01  0.61536264E-01  0.58766454E-01  0.60080975E-01
  0.25750726E-01 -0.20359198E-01  0.31155761E-01  0.21450184E+00
 -0.28345245E+00  0.30602595E-01  0.73734485E-02 -0.73152754E-04
  0.24243208E-01  0.19760437E-01  0.36050619E-02  0.31682935E-01
 -0.42440861E-01  0.21866068E-01 -0.36474708E-01 -0.28035506E-02
  0.29943240E+00  0.22910596E+00  0.11597272E-01 -0.11098399E-01
  0.64757057E-02  0.79353563E-02  0.14553241E+00 -0.74297071E-01
 -0.25932562E-01 -0.46754815E-02  0.16648775E+00 -0.20828385E-01
 -0.15960755E-02 -0.84260628E-02 -0.61570007E+00 -0.76635063E-01
  0.38172159E-01 -0.21436464E-02  0.33362638E-01  0.16782242E+00
 -0.23373502E+00 -0.76538682E-01 -0.46066754E-01  0.44487555E-01
 -0.98707616E-01 -0.62737954E-02  0.47552580E+00  0.33932380E-01
 -0.10383100E-01  0.54402575E-02  0.42593043E-01 -0.40717158E-01
 -0.34468144E-01  0.99032044E-01 -0.15680047E-01  0.16594913E-01
  0.60266785E-01 -0.96315406E-02 -0.12239870E-01 -0.44720203E-01
  0.24779208E-01  0.17988122E+00  0.16323382E+00 -0.13639979E-01
  0.24354510E-01  0.13295418E+00  0.36607604E-01  0.11295782E-01
 -0.85317552E-01  0.23435000E-01 -0.11025270E-01 -0.20789802E-01
  0.22085600E-01 -0.84365666E-01 -0.16373871E+00  0.14517105E+00
 -0.26270184E-02  0.10327830E-01  0.39756168E-01 -0.21894038E-01
  0.32299142E-01 -0.25709147E-01  0.46975818E-01  0.91380738E-02
  0.45137778E-02 -0.18453874E-01 -0.16742311E-01  0.62881191E-02
  0.31858388E-01 -0.52852482E-01  0.64126670E-01  0.70708215E-01
  0.26414242E-01 -0.95734000E-01 -0.51715512E-01 -0.61222427E-01
  0.32585312E-02 -0.72614193E-01  0.29171482E-01 -0.30535296E-01
 -0.62957479E-05  0.48962273E-02 -0.69674499E-01 -0.63961029E-01
  0.24603058E-02  0.32394648E-01 -0.59477240E-01 -0.60001016E-02
 -0.37934535E-03  0.28015230E-01 -0.36198471E-01  0.15542212E-01
 -0.82169734E-02 -0.18009149E-01 -0.15005710E-01 -0.68974863E-02
 -0.44691046E-02  0.16535791E-01  0.56647848E-01 -0.21545600E-01
 -0.41591849E-01 -0.52183717E-02 -0.25275355E-01  0.10705412E-01
  0.35601024E-01  0.87656379E-02 -0.97603872E-02  0.26778041E-02
  0.52771997E-03 -0.49273409E-02 -0.10546015E-02  0.60169499E-01
 -0.38740799E-01 -0.21469520E-01  0.29543182E-02 -0.40258940E-01
 -0.13036973E-01  0.18623425E-01  0.90010501E-02  0.14114744E-01
 -0.19131180E-01 -0.65653445E-03  0.10507871E-01  0.22839565E-01
 -0.56603737E-02  0.63457787E-01  0.13852384E-01  0.19432075E-01
  0.25225326E-01  0.21424845E-01 -0.25062202E-02  0.82456246E-02
 -0.16133001E-01  0.12762874E-01  0.22965319E-01  0.56073926E-02
  0.30660007E+01  0.84245279E-02  0.10416746E-01 -0.79152808E-02
  0.97902566E-02  0.27440810E-02 -0.18010708E-02 -0.44805668E-02
  0.44099689E-02  0.47937575E+00 -0.73863347E-02  0.62492251E-01
  0.71070671E-01  0.24661032E-01 -0.76728286E-02 -0.34576587E-01
 -0.55801379E-02  0.24911577E-01  0.72640646E+00 -0.13610826E+00
 -0.92151821E-01  0.57366919E-01 -0.79799712E-01  0.15536817E-01
  0.29552162E-01 -0.23152212E-01 -0.71591358E-02 -0.52047467E+00
 -0.18002428E+00 -0.14835779E+00 -0.15261012E+00 -0.84134936E-01
  0.74266493E-01  0.12540764E+00  0.69134533E-02 -0.10695435E+00
 -0.78587294E+00  0.42692184E+00  0.14050613E+00 -0.10526544E+00
  0.16430841E+00 -0.38810808E-01 -0.95510423E-01  0.89601815E-01
  0.10011222E-01 -0.18745262E-01  0.15723652E+00  0.10078381E+00
  0.68045855E-01  0.75673699E-01 -0.72365344E-01 -0.91716707E-01
 -0.11222346E-02  0.89619219E-01  0.83576024E-01 -0.30042052E+00
 -0.12336441E-01  0.59537541E-01 -0.84578097E-01  0.17366191E-01
  0.79637997E-01 -0.66486597E-01 -0.10213454E-01 -0.24552050E-02
 -0.10713035E+00 -0.34063545E+00  0.15499521E-03  0.16007204E-01
 -0.43798909E-02  0.56936443E-02  0.65028891E-02  0.10104385E-01
  0.11042718E-01  0.37260795E+00 -0.10771589E+00  0.56015584E-02
 -0.42281896E-02 -0.25236965E-02 -0.11927215E-02 -0.10831781E-01
  0.66218306E-02 -0.12299377E+00  0.37923908E+00  0.25219774E+00
  0.50730992E-01  0.70875049E-01 -0.12099680E-01  0.36568888E-01
  0.57058942E-01 -0.18947594E-01 -0.35674047E-01 -0.31694239E+00
  0.45843521E+00 -0.12794101E+00 -0.69748282E-01  0.42822126E-01
  0.30879771E-01 -0.51876176E-01  0.43667898E-01  0.11940229E+00
  0.61209160E+00  0.10119877E+01 -0.12578768E+00 -0.23280194E+00
  0.84285975E-01 -0.31325568E-01 -0.14911860E+00 -0.10552527E+00
 -0.42771012E+00 -0.15437869E+01  0.72490805E+00 -0.41361243E-01
  0.11341512E+00  0.58602653E-02 -0.10867082E-01  0.23384988E+00
 -0.18132640E+00  0.14408731E+01 -0.15181103E+01 -0.70733809E+00
  0.22425799E+00 -0.20626906E+00 -0.23165996E+00 -0.24311602E+00
 -0.75157177E+00  0.32163310E+00  0.11034918E+01  0.19018679E+01
 -0.25283422E+01  0.54272127E+00  0.81747144E+00 -0.33536398E+00
 -0.28131473E+00  0.44513664E+00 -0.38100833E+00 -0.49559727E+00
 -0.76724958E+00  0.64328122E+00  0.37971288E+00  0.38863847E+00
 -0.20415752E+00 -0.27450984E-01  0.35379425E+00  0.24708346E+00
  0.15503998E+01  0.70807010E+00 -0.15437078E+01  0.22590759E+00
 -0.22412081E+00  0.70388377E-01  0.28750271E-01 -0.59116590E+00
  0.65819973E+00 -0.31314049E+01  0.15656356E+01  0.18508844E+01
 -0.10490456E+01  0.13597284E+00  0.96911991E+00  0.34504092E+00
  0.18334628E+01 -0.94316882E+00 -0.32625730E+01 -0.48891926E+01
  0.43436413E+01 -0.89692706E+00 -0.22180891E+01  0.81275958E+00
  0.57701594E+00 -0.92923886E+00  0.10023088E+01  0.46660012E+00
  0.33790904E+00 -0.12450562E+01 -0.27982509E+00 -0.11594564E+00
  0.78048646E-01  0.53353403E-01 -0.21656556E+00 -0.16291539E+00
 -0.14640073E+01  0.67885810E+00  0.12005759E+01 -0.24355865E+00
  0.63787460E-01 -0.11045194E+00 -0.53045403E-01  0.37856793E+00
 -0.54621220E+00  0.18558360E+01 -0.15444052E+00 -0.95597845E+00
  0.83078742E+00  0.86885989E-01 -0.86581159E+00 -0.98496735E-01
 -0.12377062E+01  0.71731114E+00  0.23264561E+01  0.32293897E+01
 -0.22380531E+01  0.50838184E+00  0.16552075E+01 -0.55498064E+00
 -0.29978299E+00  0.58354074E+00 -0.75011015E+00 -0.18672659E-02
 -0.25456157E-01  0.60223155E-02  0.49720477E-01 -0.96478701E-01
 -0.38978409E-02 -0.22143550E-03 -0.35477504E-02 -0.55410177E-03
 -0.34474751E-02 -0.11412908E-01 -0.14703929E-01  0.10629821E+00
  0.38479727E-01 -0.11775077E-01  0.24791460E-02 -0.13214643E-04
  0.54156147E-02  0.17747484E-01  0.85842311E-01  0.12783460E-01
 -0.80395043E-02  0.82914710E-01  0.52115154E-01 -0.59585273E-02
 -0.34316640E-01 -0.31203479E-01 -0.15008710E+00  0.13022914E-01
 -0.13114069E+00 -0.98083436E-01  0.43264873E-01  0.23754107E-01
  0.40249381E-01 -0.25870554E-01  0.10604725E-01 -0.11669767E+00
  0.18879849E+00  0.85860312E-01 -0.80694497E-01 -0.14608113E+00
 -0.38452525E-01  0.11943400E+00  0.36737785E-01 -0.83100677E-01
 -0.98170817E-01 -0.25824534E-01 -0.13470169E-01  0.16278110E+00
  0.14445359E+00 -0.37913609E-01  0.26959054E-01  0.54383241E-01
 -0.33156373E-01 -0.69396198E-01 -0.29353243E+00  0.12254417E+00
 -0.11734210E-01 -0.65991062E+00 -0.22865219E+00 -0.37296601E-01
  0.19098967E+00  0.12578195E+00  0.10914135E+01  0.47314721E+00
  0.71602601E+00  0.67154002E+00 -0.39010671E+00  0.86237669E-01
 -0.38608789E+00  0.10881895E+00 -0.13271819E-01  0.24741706E+00
 -0.29912937E+00 -0.27786803E+00  0.58144860E-01  0.35581681E+00
  0.53345066E-01 -0.22732739E+00 -0.30918675E-01  0.11908953E+00
  0.87417543E-01 -0.19209104E-02  0.12066233E+00 -0.37097231E+00
 -0.29199541E+00  0.99688835E-01 -0.63901901E-01 -0.95861495E-01
  0.24224214E-01 -0.14814957E-01  0.35126495E+00 -0.10779123E+00
 -0.37479263E-01  0.10758762E+01  0.33757871E+00  0.12894207E+00
 -0.21282887E+00 -0.11465585E+00 -0.14006575E+01 -0.77323842E+00
 -0.76969254E+00 -0.10458289E+01  0.45393544E+00 -0.20995064E+00
  0.51989406E+00 -0.76540709E-01 -0.34076910E-01 -0.14458182E-01
  0.55377376E-02  0.10118626E-01  0.43726042E-02  0.30203220E-02
  0.26917916E-01 -0.27824065E-01  0.38614003E-02 -0.23288135E-02
  0.97673871E-02 -0.12221952E-01 -0.20525286E-02 -0.16824724E-01
  0.66913562E-04  0.29891020E-01  0.39633665E-01  0.86441599E-02
  0.57085603E-02  0.60076389E-01  0.44391785E-01  0.75440109E-02
 -0.47574192E-01 -0.25747169E-01 -0.13596807E+00 -0.25348425E-01
 -0.39103720E-03 -0.79124048E-02  0.47816981E-01 -0.12213376E-01
 -0.60907346E-02 -0.16249452E-01 -0.81891678E-02  0.20783218E-01
 -0.12515885E+00 -0.63580871E-02 -0.93365349E-02  0.35757355E-01
 -0.11628063E+00  0.23941847E-01  0.39817769E-01  0.22874355E-01
 -0.14632469E+00 -0.48552621E-01  0.21140071E-01 -0.29413916E-01
 -0.10383630E+00 -0.25948141E-01 -0.37469424E-01  0.13439357E-01
 -0.65478273E-02  0.93140125E-01 -0.17407706E+00 -0.22653144E-01
  0.20707194E-01 -0.12050122E-01 -0.76118793E-03  0.14033114E-02
  0.10667692E-01  0.31927917E-02 -0.39311573E-02  0.34947081E-02
  0.25789491E-02  0.31379892E-02 -0.14100998E-01  0.78286082E-02
 -0.55754264E-02 -0.79506785E-02  0.20916834E-02  0.22414434E-02
  0.73174648E-02 -0.58244867E-03  0.37509061E-02  0.89371920E-01
  0.39174829E-01 -0.15044763E-01 -0.11416791E-02 -0.28407648E-01
 -0.12282238E-01  0.21022290E-02  0.14036148E-01 -0.10413605E+00
 -0.34115105E-02 -0.33254713E-01  0.22143330E-01  0.35554640E-01
 -0.46583931E-02  0.82491376E-02  0.43415092E-02  0.11600925E+00
  0.77101216E-02 -0.15329776E-02 -0.16291803E-02 -0.26436497E-02
 -0.49016397E-02  0.12201113E-02  0.16907736E-02  0.32629375E-03
 -0.15686177E-01  0.86215138E-02  0.87878667E-02  0.13618469E-01
 -0.13227126E-01 -0.82996041E-02 -0.15946571E-01  0.71573965E-02
  0.56405216E-02 -0.54664947E-02 -0.11713527E-01 -0.12917928E-02
  0.49148053E-02  0.13711534E-01  0.31793681E-02  0.66184960E-02
  0.20440642E-02 -0.92955935E-03 -0.69237840E-02 -0.55623800E-03
  0.28278935E-03 -0.72326218E-02 -0.10317587E-01  0.10494899E-03
 -0.11032541E-01  0.24561610E-02  0.84329061E-02 -0.13802494E-02
 -0.10716312E-01  0.26969769E+01  0.32681655E-02  0.43882988E-02
 -0.27695219E-02  0.10836556E-01 -0.36222464E-03 -0.40186793E-02
 -0.25219589E-02 -0.58713162E-04  0.43824396E+00  0.19661854E-02
  0.37536159E-01  0.40424865E-01  0.34500241E-01 -0.12376063E-01
 -0.37711073E-01 -0.25790087E-02  0.21678761E-01  0.90846717E+00
 -0.32327816E-01 -0.90745449E-01  0.30759603E-01 -0.99251986E-01
  0.25366193E-01  0.51679712E-01 -0.10518883E-01  0.47520380E-01
 -0.36741737E+00 -0.22690704E+00 -0.80392957E-01 -0.10627038E+00
 -0.96276939E-01  0.56504995E-01  0.13875306E+00 -0.96518261E-03
 -0.10057622E+00 -0.98529118E+00  0.91059327E-01  0.14998364E+00
 -0.79339802E-01  0.17853464E+00 -0.37562925E-01 -0.12783724E+00
  0.34081671E-01 -0.13274521E+00 -0.14129069E-01  0.19939512E+00
  0.66745520E-01  0.63963890E-01  0.75332046E-01 -0.48900589E-01
 -0.10383719E+00  0.38989400E-02  0.86292446E-01  0.10910988E+00
 -0.51262558E-01 -0.39895140E-01  0.59805352E-01 -0.85471392E-01
  0.12946113E-01  0.86364150E-01 -0.23241360E-01  0.85489273E-01
  0.68126299E-03 -0.26906115E+00 -0.25801980E+00 -0.36406657E-03
  0.15821833E-01 -0.58499654E-02  0.49455762E-02  0.19876708E-02
  0.70102806E-02  0.10385458E-01  0.28189832E+00 -0.27379465E+00
  0.99617578E-02 -0.94898157E-02  0.23341463E-02 -0.17798021E-02
 -0.35258993E-02  0.95521472E-02 -0.59638534E-01  0.22104719E+00
  0.11115754E+00  0.36462769E-02  0.68865597E-01 -0.22449013E-01
  0.57117860E-02  0.45325380E-01  0.41912277E-02 -0.27711060E-01
 -0.10434670E+00  0.26874310E+00 -0.27662920E-01 -0.48578795E-01
  0.34111127E-01  0.36623154E-01 -0.33080464E-02  0.34407131E-01
 -0.86527243E-02  0.10166693E+01  0.33211762E+00 -0.69901407E-01
 -0.18758865E+00  0.96067429E-01 -0.20856792E-01 -0.89351058E-01
 -0.11115277E+00 -0.27616102E+00 -0.77658606E+00  0.11817398E+01
 -0.40753499E-01  0.15753448E+00 -0.38351923E-01  0.15354546E-01
  0.11337687E+00 -0.17565703E+00  0.70202410E+00 -0.12175159E+01
 -0.54803377E+00  0.31004715E+00 -0.24121670E+00  0.54169372E-02
 -0.16837782E+00 -0.57409132E+00 -0.40699039E-01  0.73859042E+00
  0.11418142E+01 -0.18006943E+01 -0.92229664E-01  0.44709340E+00
 -0.23921192E+00 -0.38646668E+00  0.41334980E-03 -0.26683545E+00
 -0.14896899E+00 -0.11365070E+01  0.14847136E+01  0.33789396E+00
  0.27518690E+00 -0.24134617E+00 -0.20836782E-01  0.24304214E+00
  0.32803184E+00  0.98338109E+00 -0.47739935E+00 -0.19460964E+01
  0.17087240E-01 -0.25491273E+00  0.74909985E-01 -0.80111437E-01
 -0.28729576E+00  0.55402631E+00 -0.14751052E+01  0.17943172E+01
  0.17780761E+01 -0.91258281E+00  0.23318028E+00  0.18268085E+00
  0.40549916E+00  0.14381837E+01  0.42043664E-01 -0.24171762E+01
 -0.34031205E+01  0.33957863E+01  0.46847907E+00 -0.11220570E+01
  0.62169796E+00  0.88092864E+00  0.88447571E-01  0.57009745E+00
  0.19369578E+00  0.60008752E+00 -0.14411573E+01 -0.28396809E+00
 -0.81249475E-01  0.11603205E+00  0.37423868E-01 -0.16771764E+00
 -0.25206983E+00 -0.87629104E+00  0.11575413E+01  0.13158293E+01
  0.61591063E-01  0.67997456E-01 -0.37556443E-01  0.51347751E-01
  0.18010110E+00 -0.45261532E+00  0.80545521E+00 -0.58170271E+00
 -0.83205843E+00  0.67988551E+00 -0.48437752E-02 -0.24384318E+00
 -0.24711604E+00 -0.99533570E+00 -0.74051530E-03  0.19566716E+01
  0.21233406E+01 -0.18595179E+01 -0.41028827E+00  0.87477672E+00
 -0.47322932E+00 -0.53535783E+00 -0.10144443E+00 -0.34023517E+00
  0.19387044E-02 -0.24992784E-01  0.41351989E-02  0.82355022E-01
 -0.10060744E+00  0.10565566E-02  0.61386190E-02 -0.56847967E-02
  0.28516681E-03  0.18765300E-02 -0.18433958E-01 -0.57170093E-02
  0.96418202E-01  0.74403822E-01 -0.49711913E-02  0.73961462E-02
 -0.26749184E-02  0.35287789E-02  0.44248570E-01  0.44711579E-01
  0.35021901E-01 -0.10435295E+00  0.12232721E+00  0.40250488E-01
  0.19099291E-01  0.10738103E-02 -0.69058016E-02 -0.51917084E-01
 -0.27201002E-01 -0.10501927E+00 -0.16478807E+00 -0.83345890E-01
 -0.19203558E-02  0.45351200E-01 -0.21076348E-01  0.86140931E-02
 -0.10319303E+00  0.13298593E+00  0.73425949E-01 -0.46246284E+00
  0.13967548E+00 -0.45703523E-01  0.76875174E-02  0.67371547E-01
 -0.46121821E-01 -0.71389139E-01 -0.35766073E-01 -0.66930771E-01
 -0.13037997E+00 -0.29186928E+00 -0.43604024E-01 -0.38124867E-01
  0.46981771E-01 -0.33583380E-01 -0.22479942E+00 -0.17325094E+00
 -0.42389341E-01  0.63497186E-01 -0.65707499E+00 -0.18000966E+00
 -0.13928048E+00  0.92657888E-03  0.32833587E-01  0.35454521E+00
  0.56296510E+00  0.54718381E+00  0.87280089E+00 -0.95135510E-01
  0.18839496E+00 -0.28471857E+00  0.99687934E-01 -0.74194789E-01
  0.22021560E+00 -0.19814748E+00 -0.26210845E+00  0.38916111E+00
 -0.11701602E+00  0.43736540E-01 -0.51089484E-01 -0.89396298E-01
  0.56751572E-01  0.84288061E-01  0.46980046E-01  0.16849744E+00
  0.14809281E+00  0.15139216E+00  0.80832958E-01  0.28206998E-01
 -0.66889465E-01  0.30166354E-01  0.12673169E+00  0.26919132E+00
  0.78022063E-01  0.44204062E-03  0.88714296E+00  0.26615989E+00
  0.19613440E+00 -0.19267650E-01 -0.56138385E-01 -0.44904345E+00
 -0.76422286E+00 -0.58892202E+00 -0.11297760E+01  0.21760572E+00
 -0.28634095E+00  0.33985865E+00 -0.90833008E-01  0.72062910E-01
 -0.51934798E-02  0.74422546E-03  0.79966486E-02  0.72337948E-02
 -0.33158786E-03  0.32955918E-01 -0.36173228E-01  0.37724697E-02
 -0.41374913E-03 -0.21712191E-02 -0.42578482E-03  0.46815388E-02
 -0.11746973E-01  0.20427757E-02  0.37616257E-01  0.33100203E-01
  0.46383850E-02  0.91368472E-03  0.12895067E-01  0.50809752E-01
  0.29385977E-02 -0.18984521E-01 -0.27869945E-01 -0.12483257E+00
 -0.34310818E-01 -0.27956213E-02 -0.34609213E-04  0.11988607E-01
 -0.21017001E-02  0.25302018E-02 -0.96779130E-02 -0.14333851E-01
  0.32475427E-01 -0.11795450E+00 -0.32607215E-02 -0.88285506E-02
  0.10866593E-01 -0.90187967E-01  0.33737592E-01  0.10237813E-01
  0.22867152E-01 -0.17877860E+00 -0.42381447E-01  0.12767125E-01
 -0.93460009E-02 -0.30316096E-01 -0.55458795E-01 -0.43160249E-01
  0.22116290E-01 -0.88928193E-02  0.67580640E-01 -0.13444775E+00
 -0.15160068E-01  0.16901068E-01 -0.74068047E-02 -0.93656145E-02
  0.16188228E-02  0.28720107E-02  0.59500970E-02 -0.38546901E-02
  0.22760718E-02  0.99050291E-02  0.50792433E-02 -0.11978723E-01
  0.60989032E-02 -0.10759149E-01 -0.51578474E-02 -0.61472133E-02
 -0.13215246E-02  0.77774036E-02 -0.41620322E-02  0.12450546E-01
  0.33062402E-01  0.28125862E-01 -0.74927360E-02  0.32324707E-02
 -0.23429560E-01 -0.13820421E-02  0.71330257E-02  0.28685572E-01
 -0.87745190E-01  0.55558789E-02 -0.37983757E-01  0.23901638E-01
  0.20743826E-01 -0.81198774E-02 -0.32056179E-02  0.81566982E-02
  0.96058130E-01  0.33794027E-01  0.55779284E-03 -0.44976063E-02
 -0.40536793E-03 -0.57768039E-02  0.36962279E-02  0.12729282E-02
 -0.32060328E-02 -0.11466082E-01  0.39026921E-02  0.30240277E-02
  0.14327827E-01 -0.91552846E-02 -0.15580239E-02 -0.14593671E-01
  0.58387029E-02  0.71950476E-02 -0.30479324E-02 -0.67118257E-02
 -0.39168894E-02  0.10714658E-01  0.97695887E-02  0.44566910E-02
  0.11315702E-02 -0.24044179E-03 -0.57686237E-03 -0.59982352E-02
 -0.22883762E-02  0.37045735E-02 -0.60077985E-02 -0.99031962E-02
  0.84312021E-03 -0.11128207E-01  0.24483954E-02  0.49151890E-02
  0.20255844E-03 -0.45773275E-02
