  0.52396593E+01 -0.56523629E-01 -0.18704616E-01  0.12128916E-01
  0.79412200E-02 -0.10031432E-01  0.21567253E-01 -0.68602669E-02
  0.37022347E-02  0.78359321E-02  0.63161589E-02 -0.10695398E-01
  0.29390156E-01  0.93325400E+00 -0.28997501E-01  0.10946779E+00
 -0.30769539E+00 -0.37993371E+00 -0.23273271E+00  0.89480698E-01
  0.33896312E-01  0.32839006E+00 -0.81993341E-01 -0.14348942E+00
 -0.27823284E-01  0.11266430E-01  0.80531130E+01  0.13981723E+01
  0.47361961E+00 -0.11388183E+00  0.77816737E+00 -0.17388149E+00
  0.29099107E+00  0.29059123E-01 -0.37210888E+00 -0.11191851E+00
 -0.43733008E-01  0.12193084E+00 -0.32639456E+00 -0.13390854E+02
  0.62356526E+00  0.24597547E+01  0.44970918E+01  0.85659552E+01
  0.40355291E+01 -0.79231381E+00 -0.67203265E+00 -0.47442722E+01
  0.21074810E+01  0.33913581E+01 -0.10161762E+00 -0.69574165E+00
 -0.32273560E+02 -0.56248398E+01 -0.58702979E+01 -0.43174982E+01
 -0.32914648E+01  0.14731911E+01 -0.84157687E+00 -0.18629676E+00
  0.36630039E+01 -0.49589831E+00  0.42669845E+00 -0.39217407E+00
  0.15235480E+01 -0.10364820E+00 -0.17449903E+02 -0.18375046E+02
 -0.16429413E+02 -0.42843185E+02 -0.18512325E+02  0.29954519E+01
  0.44427662E+01  0.22331482E+02 -0.11312364E+02 -0.17385391E+02
  0.13743352E+01  0.49287653E+01  0.35317551E+02  0.78040109E+01
  0.22017227E+02  0.19007368E+02  0.51486940E+01 -0.32355108E+01
 -0.70289177E+00 -0.18949838E-01 -0.10833931E+02  0.30533838E+01
 -0.15614651E+01  0.34174812E+00 -0.33425491E+01  0.10955017E+03
  0.64495300E+02  0.39307388E+02  0.21447479E+02  0.88321732E+02
  0.36022034E+02 -0.49279385E+01 -0.11266347E+02 -0.45660416E+02
  0.24368757E+02  0.36402847E+02 -0.37913997E+01 -0.12354782E+02
 -0.15069657E+02 -0.54928751E+01 -0.30891768E+02 -0.26297501E+02
 -0.28576374E+01  0.23907242E+01  0.27161198E+01  0.10669556E+01
  0.12239297E+02 -0.43662004E+01  0.20293264E+01  0.21851628E+00
  0.34469430E+01 -0.18371088E+03 -0.78854767E+02 -0.32724579E+02
 -0.86944237E+01 -0.80539780E+02 -0.31638613E+02  0.32864110E+01
  0.12187759E+02  0.42042587E+02 -0.23398041E+02 -0.33907745E+02
  0.42148323E+01  0.12834593E+02  0.22537870E+01  0.19722795E+01
  0.14214871E+02  0.11752550E+02  0.97573817E-01 -0.41853246E+00
 -0.14487734E+01 -0.91950285E+00 -0.47050495E+01  0.19138947E+01
 -0.85748470E+00 -0.30080920E+00 -0.13293972E+01  0.86102798E+02
  0.31215927E+02  0.92085867E+01 -0.52750915E+00  0.26795362E+02
  0.10308077E+02 -0.60259056E+00 -0.47401171E+01 -0.14323978E+02
  0.83509979E+01  0.11643826E+02 -0.16808404E+01 -0.47212677E+01
  0.53214841E-02  0.17079000E+01  0.16235819E+01  0.33274174E-01
 -0.12954264E-01 -0.36316011E-02  0.45543168E-01 -0.43191575E-02
 -0.25532668E-01  0.89464858E-02  0.23123840E-01  0.16921321E-01
  0.33485752E-01 -0.22577250E+00 -0.16961775E+01  0.17585012E+01
 -0.36464982E-01 -0.46494432E-01 -0.19080851E-02 -0.31143920E-01
  0.10176011E-01 -0.69593936E-02 -0.66427360E-02  0.23588387E-02
 -0.55617541E-02 -0.19860145E-01 -0.17363092E+01  0.18277779E+01
  0.16650457E+01 -0.48928317E-01 -0.43136492E+00 -0.47681876E-01
  0.25482827E+00 -0.18712924E+00  0.47013283E+00 -0.17417169E+00
  0.78237891E-01  0.10381133E+00  0.17819384E-01 -0.14371651E+01
 -0.80177718E+00  0.61360812E+00 -0.59573972E+00  0.52904451E+00
 -0.10058826E+00  0.21083134E+00  0.78204811E-01  0.61967522E-02
  0.11077179E+00 -0.40769760E-01  0.21807816E-01  0.20648648E-02
  0.46911736E+01  0.78173609E+01  0.12199426E+02 -0.16422653E+01
  0.37755156E+01 -0.40263683E+00 -0.52920252E+00 -0.21391793E+00
  0.57929236E+00  0.80246806E-01 -0.18910320E+00 -0.50804532E+00
 -0.88265944E+00  0.69275224E+00 -0.12002476E+02  0.57374411E+01
  0.13528374E+01  0.44981871E+01 -0.47366244E+00  0.36056972E+00
  0.79039747E+00 -0.22344507E-01 -0.64753890E-01  0.46970186E+00
 -0.40660375E+00  0.44191416E-01  0.39014664E+02 -0.28619869E+02
 -0.15200558E+01 -0.19682380E+01  0.13416007E+02  0.27089479E+01
 -0.59305797E+01  0.31192074E+01 -0.91367607E+01  0.26589973E+01
 -0.11606407E+00 -0.35579135E+01 -0.89003718E+00  0.34678040E+02
 -0.52889097E+00 -0.57936335E+01  0.87519836E+01 -0.10267423E+02
  0.12299099E+01 -0.30112038E+01  0.11044226E+01 -0.21466112E+01
  0.45218792E-01  0.30407922E+01 -0.71307266E+00 -0.15156336E+01
 -0.52359818E+02 -0.65902924E+02 -0.30542084E+02  0.45587654E+01
 -0.33256969E+02  0.32021561E+01  0.60264254E+01  0.39931145E+01
 -0.21957395E+01 -0.14460715E+01 -0.62892985E+00  0.19364243E+01
  0.71591697E+01  0.99375763E+01  0.36078583E+02 -0.38465439E+02
 -0.34042757E+01 -0.46145634E+02  0.20836172E+01 -0.37764752E+01
 -0.62155056E+01 -0.36285689E+00  0.83748114E+00 -0.11298742E+01
  0.38863552E+01  0.14642849E+01 -0.22182346E+03  0.11115141E+03
 -0.16951050E+02  0.17158339E+02 -0.61797070E+02 -0.21725037E+02
  0.33751068E+02 -0.20662018E+02  0.52077255E+02 -0.10576082E+02
  0.19523580E+00  0.24283321E+02  0.39174993E+01 -0.22131870E+03
  0.17304182E+02 -0.28861008E+02 -0.44697052E+02  0.53147095E+02
 -0.61317329E+01  0.16753128E+02 -0.89905109E+01  0.20872986E+02
 -0.63277898E+01 -0.26276548E+02  0.64804440E+01  0.11094950E+02
  0.17550494E+03  0.16372993E+03 -0.21463623E+02  0.27199810E+01
  0.99251190E+02 -0.79424791E+01 -0.21751923E+02 -0.18336348E+02
  0.69923621E+00  0.50953040E+01  0.72605686E+01 -0.15412291E+01
 -0.22803528E+02 -0.56229095E+02  0.14818200E+01  0.69807755E+02
  0.33564429E+01  0.14655196E+03 -0.27966242E+01  0.12579897E+02
  0.17929474E+02  0.43725863E+01 -0.22176218E+01 -0.37626829E+01
 -0.10943099E+02 -0.52088385E+01  0.53665625E+03 -0.20060768E+03
  0.17310242E+02 -0.54237484E+02  0.99595352E+02  0.66468887E+02
 -0.80023056E+02  0.58134548E+02 -0.12709148E+03  0.15493524E+02
 -0.31282263E+01 -0.65706467E+02 -0.49680538E+01  0.55392432E+03
 -0.46328995E+02  0.14449484E+03  0.10233987E+03 -0.11556945E+03
  0.13084748E+02 -0.44251144E+02  0.22732941E+02 -0.62439159E+02
  0.21050629E+02  0.77459229E+02 -0.19942720E+02 -0.28916519E+02
 -0.23239844E+03 -0.18225693E+03  0.10545852E+03 -0.16537476E+02
 -0.12225864E+03  0.72478418E+01  0.29107880E+02  0.29596209E+02
  0.43757658E+01 -0.56305580E+01 -0.14893910E+02 -0.16775293E+01
  0.30470701E+02  0.95573685E+02 -0.82114166E+02 -0.54173035E+02
 -0.28702698E+01 -0.18174020E+03 -0.33480752E+00 -0.15407215E+02
 -0.20705091E+02 -0.86905785E+01  0.13393048E+01  0.11856749E+02
  0.11862598E+02  0.56412411E+01 -0.58746802E+03  0.17872774E+03
  0.44170807E+02  0.71773788E+02 -0.55947525E+02 -0.85275742E+02
  0.84508286E+02 -0.71050827E+02  0.13868575E+03 -0.73421702E+01
  0.69255681E+01  0.76826965E+02  0.51061606E+00 -0.58909229E+03
  0.41609573E+02 -0.19081409E+03 -0.10350249E+03  0.11202155E+03
 -0.11497140E+02  0.53446167E+02 -0.24178513E+02  0.73052414E+02
 -0.24337906E+02 -0.93695747E+02  0.24911682E+02  0.31728121E+02
  0.10805178E+03  0.77080933E+02 -0.67569351E+02  0.11093395E+02
  0.53251942E+02 -0.18096046E+01 -0.12874348E+02 -0.15589550E+02
 -0.36182413E+01  0.18153867E+01  0.87414274E+01  0.19512452E+01
 -0.14214748E+02 -0.53066940E+02  0.58636520E+02  0.16770859E+02
  0.15051440E+01  0.77045029E+02  0.18778744E+01  0.61496325E+01
  0.81532841E+01  0.46847639E+01  0.32412457E+00 -0.78524046E+01
 -0.42911911E+01 -0.19247580E+01  0.23769147E+03 -0.61533981E+02
 -0.47820068E+02 -0.34214539E+02  0.40193148E+01  0.38487625E+02
 -0.32399445E+02  0.30905640E+02 -0.55419479E+02 -0.24066786E+00
 -0.41797304E+01 -0.32275726E+02  0.15222616E+01  0.22423344E+03
 -0.12581700E+02  0.80397064E+02  0.37280334E+02 -0.41082153E+02
  0.31536262E+01 -0.23678225E+02  0.94953613E+01 -0.29353226E+02
  0.94907122E+01  0.40155743E+02 -0.10989324E+02 -0.12388154E+02
  0.20844081E-01 -0.80697119E-01  0.30533599E-01 -0.64598644E+00
 -0.16657440E+00 -0.21123191E-01  0.92248209E-02 -0.25574602E-02
 -0.73007606E-02  0.12166508E-01 -0.12164735E-01  0.68045147E-02
 -0.77586402E-02 -0.69821604E-01  0.10285665E-01  0.30625435E-01
  0.12556809E+00 -0.77144939E+00  0.14403919E-01  0.32232672E-02
 -0.18554740E-01  0.41907094E-02 -0.10089986E-02  0.43220967E-02
  0.18566685E-02 -0.25719404E-01 -0.36431217E+00 -0.18156898E+00
 -0.11474407E+00  0.64775425E+00  0.20361812E+00  0.58565475E-02
 -0.85165560E-01 -0.11972089E+00 -0.25655258E+00 -0.12931144E+00
 -0.37106670E-01 -0.15892605E+00 -0.45120209E-01  0.10515985E+01
  0.61001372E+00  0.23907983E+00 -0.96539229E+00  0.35442737E+00
 -0.22381258E+00  0.19057482E+00 -0.75943321E-02  0.47220100E-01
 -0.86490214E-02  0.44078577E-01 -0.37896220E-01 -0.78807138E-02
  0.27450144E+00 -0.69624442E+00 -0.14316444E+01  0.18575619E+01
  0.37408111E+01 -0.57409221E+00 -0.48675665E+00  0.22489710E+00
 -0.55995405E-01  0.24701400E+00  0.39949957E-01  0.95097050E-02
  0.15562671E+00  0.29598873E+01 -0.22428036E+01  0.16291960E+01
 -0.38134632E+01  0.55432539E+01 -0.76043952E+00 -0.81076157E+00
  0.97178990E+00  0.18208522E+00 -0.16950764E-01  0.58102113E+00
 -0.36130011E+00  0.14220279E+00  0.34898541E+01  0.21215763E+01
  0.22773733E+01 -0.46729574E+01  0.32191401E+01  0.10207691E+01
  0.40245906E+00  0.71286887E+00  0.25590410E+01  0.10251751E+01
 -0.47245732E+00  0.82578123E+00 -0.63747823E-01 -0.69263587E+01
 -0.71795802E+01  0.26847792E+01  0.42841091E+01 -0.33002298E+01
  0.25364313E+01 -0.16150084E+01  0.56352544E+00  0.55770433E+00
  0.44689545E+00 -0.62278980E+00 -0.38403079E+00 -0.24888089E+00
 -0.28185654E+01  0.10438053E+02  0.53413091E+01  0.12666808E+02
  0.10997744E+02  0.27631533E+01  0.28622415E+01 -0.12079479E+01
  0.16985101E+01 -0.21927738E+01  0.75003195E+00  0.98793447E-01
 -0.10628949E+01 -0.15150088E+02  0.23410826E+02 -0.12058938E+02
 -0.97661982E+01 -0.59994440E+01  0.12919569E+01  0.10240660E+01
 -0.46654778E+01 -0.17236118E+01  0.58620757E+00 -0.33529606E+01
  0.26049087E+01 -0.11627923E+00 -0.76791868E+01 -0.53989239E+01
 -0.93963966E+01  0.89348898E+01 -0.13714699E+02 -0.40793180E+01
 -0.13703756E+01 -0.11329165E+01 -0.66214285E+01 -0.19741460E+01
  0.19676807E+01 -0.15802439E+01  0.74486417E+00  0.10005783E+02
  0.22066393E+02 -0.93126631E+01 -0.34220304E+01  0.73809199E+01
 -0.56643806E+01  0.28039863E+01 -0.20841558E+01 -0.25536554E+01
 -0.20768547E+01  0.14609889E+01  0.22773333E+01  0.10445652E+01
  0.88902111E+01 -0.21831713E+02 -0.75236998E+01 -0.45947891E+02
 -0.52254837E+02 -0.43777103E+01 -0.65832410E+01  0.27934113E+01
 -0.51957226E+01  0.45358448E+01 -0.29035003E+01 -0.80293536E+00
  0.31588888E+01  0.30450516E+02 -0.57946453E+02  0.24090500E+02
  0.50759995E+02 -0.16110199E+02  0.35295737E+01  0.28397503E+01
  0.93683434E+01  0.46508341E+01 -0.98472542E+00  0.71794257E+01
 -0.56259937E+01  0.42344132E+00  0.37496376E+01  0.41398544E+01
  0.89929867E+01 -0.21592083E+01  0.15710482E+02  0.37366180E+01
  0.12688894E+01  0.56009918E+00  0.45878363E+01  0.10043669E+01
 -0.15857162E+01  0.11541929E+01 -0.63341981E+00 -0.16841688E+01
 -0.19766066E+02  0.61021028E+01 -0.47736244E+01 -0.30741682E+01
  0.37985227E+01 -0.14054888E+01  0.19982290E+01  0.24144678E+01
  0.21827765E+01 -0.78220946E+00 -0.24638700E+01 -0.81352621E+00
 -0.86120291E+01  0.12768568E+02  0.40449324E+01  0.35735748E+02
  0.45281525E+02  0.14536484E+01  0.48580322E+01 -0.21178226E+01
  0.40526733E+01 -0.26759615E+01  0.23512812E+01  0.86008638E+00
 -0.27273741E+01 -0.23491455E+02  0.42392090E+02 -0.13589549E+02
 -0.45290329E+02  0.22402477E+02 -0.52239590E+01 -0.39634600E+01
 -0.66355686E+01 -0.30386248E+01  0.24522118E+00 -0.52094822E+01
  0.38612597E+01 -0.76240206E+00 -0.14890508E+00 -0.24325430E-01
 -0.38893390E-01  0.66723585E-01  0.59333671E-01 -0.36929661E+00
 -0.60848284E+00  0.94836205E-02  0.54205763E-02 -0.15333357E-01
 -0.11106117E-02  0.22575625E-02  0.23593076E-02 -0.22660283E-01
  0.45373969E-01  0.50671659E-01 -0.36677148E-01  0.63135207E-01
  0.61916250E+00 -0.39381257E+00 -0.22737507E-01  0.37895910E-01
 -0.11128757E-01 -0.91112591E-02 -0.10985606E-01  0.15489354E-01
 -0.22802022E+00  0.26512158E+00 -0.22216138E+00  0.10585244E+00
 -0.16293722E+00 -0.69953334E+00 -0.20355964E+00  0.23573790E-01
  0.29221946E-01 -0.58141429E-01 -0.10479218E+00  0.38031030E-01
  0.34238581E-01 -0.32278049E+00  0.10433109E+00 -0.70636094E-01
 -0.45763809E-01  0.49903281E-01  0.49318543E+00 -0.80187607E+00
 -0.83227634E-01  0.23710171E-01 -0.30420637E-01 -0.10782067E-01
  0.52331042E-01  0.40990692E-01  0.75721163E+00 -0.10054684E+00
 -0.43790364E+00  0.35622925E-01 -0.68008202E+00  0.13344153E+01
  0.10325203E+01  0.21211478E+00 -0.52811492E-01  0.58822643E-01
 -0.29041560E-01  0.13278133E+00  0.60832471E-01 -0.51921064E+00
  0.73404193E-01 -0.14045805E+00  0.56511676E+00 -0.10780087E+01
 -0.90128416E+00  0.18347826E+01  0.23589997E-01  0.19664788E+00
  0.10371150E+00  0.16768134E+00  0.25422746E+00 -0.27516479E-01
  0.47642750E+00 -0.12712888E+01  0.50919580E+00 -0.37558299E-01
  0.41861004E+00  0.72344553E+00  0.58304828E+00 -0.37630741E-01
 -0.21993767E-01  0.15301681E+00  0.14597134E+00 -0.88676035E-01
 -0.34135389E-02  0.10227041E+01 -0.10414064E+00  0.21676075E+00
 -0.18772216E+00  0.27981550E+00 -0.11495647E+01  0.94243646E+00
  0.13660997E+00 -0.18090218E+00  0.32121956E-01  0.75706482E-01
 -0.24605010E+00 -0.13862634E+00 -0.76268691E+00  0.10962811E+01
  0.10399638E+01  0.96028931E-01  0.77267742E+00 -0.18069419E+01
 -0.60100138E+00 -0.48312187E+00 -0.72206438E-01  0.13322053E-02
 -0.17916759E-01 -0.28112435E+00 -0.19206631E-02  0.68990117E+00
 -0.17288911E+00  0.42733532E+00 -0.42356348E+00  0.20443859E+01
  0.25324249E+00 -0.22968807E+01  0.21025424E+00 -0.64606422E+00
 -0.20289104E+00 -0.37085348E+00 -0.52354544E+00 -0.47585368E-01
  0.59121333E-01  0.75014154E-02  0.32973830E-01  0.16474612E-01
  0.32099038E-02  0.20523885E-01  0.14850209E-01  0.15989558E+00
 -0.22012539E+00  0.11682351E-01  0.37532365E-02  0.28839896E-02
  0.90501495E-02  0.25123443E-01 -0.54974113E-01 -0.40254004E-01
 -0.64294338E-01  0.18476808E-01  0.54143369E-02  0.26773553E-01
  0.22185428E+00  0.18453132E+00  0.40824944E-03 -0.20066461E-01
  0.10584317E-01 -0.42071901E-02 -0.11119862E-01 -0.84521770E-01
 -0.72065473E-01 -0.10357255E+00  0.25481066E-01 -0.31697039E-01
 -0.34495179E-01 -0.12500072E+00 -0.29316074E+00 -0.50189231E-01
  0.20690961E-01  0.20984368E-01  0.46142556E-01  0.31204319E-02
 -0.15957630E+00 -0.45523684E-01  0.11955297E-02  0.21015655E-01
  0.35082825E-01 -0.32445975E-01  0.22741143E+00 -0.11440505E+00
  0.16439868E-01 -0.42733327E-02  0.36579225E-01 -0.35476536E-01
  0.20448798E-01  0.88741958E-01 -0.45464959E-01 -0.15399727E-01
  0.49765371E-01 -0.19545292E-01  0.20340795E-01 -0.11448290E-01
  0.21605458E-01  0.11625880E+00  0.15443806E+00 -0.68518184E-02
  0.68731946E-02  0.44177953E-01  0.17190438E-01 -0.34843344E-01
 -0.55796959E-01 -0.18618047E-01 -0.13446326E-02 -0.13807907E-01
  0.16442720E-01 -0.63370585E-01 -0.13994680E+00  0.10775572E+00
  0.18059419E-01 -0.11631263E-02  0.56581873E-01 -0.43296669E-01
  0.87594800E-02 -0.19183893E-01  0.22148753E-01  0.16138325E-01
  0.35961125E-01  0.62827729E-02 -0.29091935E-02  0.17914118E-01
  0.23472056E-01 -0.40293448E-01  0.52220736E-01 -0.28325748E-01
  0.18121799E-01 -0.55669229E-01 -0.43550450E-01 -0.41511983E-01
  0.28219912E-03 -0.45169748E-01  0.30541521E-01 -0.75302450E-02
  0.11561215E-01 -0.71855858E-02 -0.42805452E-01 -0.74895382E-01
 -0.40362079E-01  0.39089802E-02 -0.43586571E-01 -0.13430197E-01
  0.19074352E-01 -0.14927470E-02 -0.83385855E-02  0.12412880E-01
 -0.39789900E-02 -0.93350485E-02  0.31809625E-03  0.69165081E-02
  0.16948409E-01  0.40239397E-01  0.21818380E-02 -0.23886045E-01
 -0.19706257E-02  0.17834106E-01  0.75256266E-02 -0.88512674E-02
  0.25555318E-01  0.24699422E-01 -0.68906401E-02 -0.15585790E-02
  0.12531396E-01 -0.15920259E-01  0.71578026E-01  0.36469545E-01
 -0.18202314E-01  0.23860380E-01 -0.15428271E-02 -0.31324875E-01
  0.12997809E-01  0.49806461E-02 -0.13169400E-01  0.15163812E-01
  0.45059994E-02  0.96705593E-02  0.32339197E-01 -0.71236551E-01
  0.24793786E-03  0.38303077E-01  0.23001377E-01 -0.34666590E-02
  0.19711128E-01  0.14156576E-01 -0.15163545E-02  0.14914330E-01
 -0.16906055E-01  0.68336162E-02  0.72287619E-02 -0.10352530E-01
  0.84432192E+01 -0.17606992E-01 -0.12995031E-01  0.30051457E-01
  0.45477945E-01  0.12136348E-01 -0.20886989E-01 -0.25218518E-01
  0.38802756E-02  0.50634779E-02  0.17426118E-01 -0.19343944E-01
  0.21120736E-01  0.13067626E+01 -0.19031614E+00 -0.47110277E+00
  0.15309572E+00 -0.25000983E+00 -0.21639533E+00  0.13572133E+00
  0.16442589E-01  0.29920632E+00 -0.35695665E-01  0.72213779E-02
  0.36948244E-03 -0.19350249E+00  0.20192822E+02  0.10371314E+00
 -0.12936906E+01 -0.47384897E+00  0.43617851E+00 -0.88357633E+00
  0.84384918E+00  0.40130624E+00 -0.24254838E+00  0.19504283E+00
 -0.32403553E+00  0.68768030E+00 -0.70447677E+00  0.10385976E+02
  0.26844604E+01  0.91865940E+01 -0.28847568E+01  0.69040632E+01
  0.30880928E+01 -0.16791334E+01 -0.77926904E+00 -0.40792050E+01
  0.16587725E+01  0.11048365E+01  0.56877960E-01  0.26553493E+01
 -0.94894257E+02 -0.74020922E+00  0.97572689E+01 -0.13988618E+01
 -0.48308020E+01  0.61252832E+01 -0.29142206E+01 -0.31117847E+01
  0.10199929E+01 -0.25860062E+01  0.15488663E+01 -0.52199421E+01
  0.62431126E+01 -0.15947099E+03 -0.33153687E+02 -0.38277393E+02
  0.16296082E+02 -0.37176071E+02 -0.16504715E+02  0.97844954E+01
  0.60243282E+01  0.18602615E+02 -0.88784885E+01 -0.70023069E+01
 -0.85667688E+00 -0.10270858E+02  0.14434689E+03  0.40043659E+01
 -0.22543152E+02  0.10819620E+02  0.13452056E+02 -0.14324648E+02
  0.14989967E+01  0.83210297E+01 -0.11521397E+01  0.86834040E+01
 -0.32280767E+01  0.13568054E+02 -0.17570890E+02  0.46371680E+03
  0.11013431E+03  0.54929169E+02 -0.38762985E+02  0.82882599E+02
  0.38311661E+02 -0.25024157E+02 -0.15210931E+02 -0.36635258E+02
  0.18874268E+02  0.14921486E+02  0.31062038E+01  0.17111542E+02
 -0.10361340E+03 -0.10559740E+02  0.20353821E+02 -0.17083008E+02
 -0.12879773E+02  0.13625261E+02  0.28179274E+01 -0.85639162E+01
 -0.39836457E+00 -0.10996530E+02  0.32205973E+01 -0.14092369E+02
  0.19663300E+02 -0.51334302E+03 -0.13410316E+03 -0.27003067E+02
  0.40749176E+02 -0.81037048E+02 -0.38719090E+02  0.27226254E+02
  0.15593899E+02  0.32171307E+02 -0.18132612E+02 -0.12962886E+02
 -0.39625752E+01 -0.13030040E+02  0.30432692E+02  0.74267564E+01
 -0.65251379E+01  0.81919823E+01  0.35932455E+01 -0.45463295E+01
 -0.21767292E+01  0.29457209E+01  0.77555543E+00  0.47232056E+01
 -0.12480307E+01  0.50437913E+01 -0.76494975E+01  0.19720856E+03
  0.54842209E+02  0.14811363E+01 -0.15508769E+02  0.28584122E+02
  0.13968619E+02 -0.10371296E+02 -0.56411085E+01 -0.10385418E+02
  0.65630751E+01  0.39054108E+01  0.16419486E+01  0.37288153E+01
  0.73617697E-01  0.15868282E+01  0.15948018E+01 -0.51909208E-01
  0.10965754E+00  0.42061005E-01  0.86369067E-02 -0.35956562E-01
 -0.24439633E-01  0.13813863E-01  0.33473484E-01 -0.12541714E-01
  0.13831582E-01 -0.22122268E+00 -0.16716870E+01  0.17568768E+01
 -0.10806261E+00 -0.60551725E-01  0.32627717E-01 -0.40097754E-01
  0.32800335E-01 -0.22351673E-01 -0.30436331E-01  0.85034929E-02
  0.44959597E-02 -0.57923377E-01 -0.13319710E+01  0.20320992E+00
  0.28417444E+01 -0.26053953E+00  0.41736744E-01  0.48073849E+00
  0.30752099E+00  0.27773428E+00  0.58028370E+00 -0.27988780E+00
  0.20987780E+00  0.21454687E+00 -0.21824504E+00 -0.32366133E+00
 -0.18102025E+01  0.73649567E+00 -0.12784365E+01  0.13987559E+00
  0.29401946E+00 -0.11734487E+00  0.30285734E+00  0.47187988E-01
 -0.40725452E+00  0.69726706E-01 -0.14392922E-01 -0.16440731E+00
  0.43222733E+01  0.25277065E+02 -0.94375877E+01  0.12424450E+01
  0.19729581E-01 -0.89677179E+00 -0.36436403E+00  0.90389621E+00
 -0.13076816E+00  0.15358768E+00 -0.36496457E+00  0.83983088E+00
 -0.97137809E-01 -0.39563198E+01  0.94551935E+01  0.17336027E+02
  0.19375324E+01  0.29811149E+01  0.36434084E+00  0.96826065E+00
  0.76319695E-01  0.63908470E+00  0.66578782E+00 -0.31862479E+00
 -0.63156575E+00  0.88741779E-01  0.31899078E+02  0.26338455E+02
 -0.26924988E+02 -0.28954153E+01  0.11245871E+01 -0.62383065E+01
 -0.71671295E+01 -0.44009342E+01 -0.11893279E+02  0.59641714E+01
 -0.12007704E+01 -0.48183508E+01  0.41470280E+01  0.29249303E+01
  0.10189669E+02  0.64222164E+01  0.16846100E+02 -0.56195574E+01
 -0.38048904E+01  0.29024999E+01 -0.38915317E+01 -0.16548052E+01
  0.71972713E+01  0.18794575E+01  0.20752628E+00  0.15136870E+01
 -0.47960709E+02 -0.14527844E+03  0.13558260E+03 -0.15012978E+02
 -0.89980879E+01  0.33358765E+01  0.65263829E+01 -0.57562590E+01
  0.23737574E+01 -0.32089405E+01  0.66337514E+00 -0.98810377E+01
 -0.12185402E+01  0.54375408E+02 -0.13382069E+03 -0.69432632E+02
 -0.15594944E+02 -0.28076584E+02 -0.55643234E+01 -0.81322346E+01
 -0.26028937E+00 -0.52387094E+01 -0.39641640E+01  0.58208842E+01
  0.58059583E+01  0.43214092E+01 -0.18676459E+03 -0.16449844E+03
  0.18679526E+03  0.44028061E+02  0.67239270E+01  0.20764875E+02
  0.43572433E+02  0.15105405E+02  0.72933273E+02 -0.35417358E+02
 -0.33102429E+01  0.33491135E+02 -0.28131254E+02  0.13132271E+02
 -0.71697983E+02 -0.14838393E+02 -0.88297775E+02  0.35739059E+02
  0.24429443E+02 -0.19637222E+02  0.15767019E+02  0.12106134E+02
 -0.38460907E+02 -0.17444714E+02 -0.57627004E+00 -0.71105013E+01
  0.16358971E+03  0.30532544E+03 -0.45578516E+03  0.51725407E+02
  0.42051998E+02 -0.12835168E+01 -0.28778364E+02  0.11572843E+02
 -0.11792857E+02  0.97184315E+01  0.28023021E+01  0.34010326E+02
  0.76306806E+01 -0.19060995E+03  0.45207544E+03  0.60605190E+02
  0.49964783E+02  0.83181351E+02  0.17889481E+02  0.23796246E+02
 -0.10524483E+01  0.17759962E+02  0.98242826E+01 -0.24883148E+02
 -0.17036592E+02 -0.18363981E+02  0.47393289E+03  0.36210422E+03
 -0.54417676E+03 -0.15719067E+03 -0.48869659E+02 -0.19227539E+02
 -0.11137080E+03 -0.14016640E+02 -0.18484474E+03  0.86145981E+02
  0.26243608E+02 -0.93299728E+02  0.76153839E+02 -0.10607855E+03
  0.18373106E+03 -0.71254372E+02  0.21552979E+03 -0.88725647E+02
 -0.66744751E+02  0.48730530E+02 -0.28787106E+02 -0.34096436E+02
  0.84370392E+02  0.52670151E+02 -0.46487325E+00  0.18449722E+02
 -0.22080928E+03 -0.29196875E+03  0.61042773E+03 -0.71494476E+02
 -0.68313873E+02 -0.85744400E+01  0.44273830E+02 -0.82676735E+01
  0.20448517E+02 -0.80523005E+01 -0.84449396E+01 -0.45622375E+02
 -0.12797120E+02  0.25156477E+03 -0.59986981E+03  0.34923367E+02
 -0.63288605E+02 -0.98415482E+02 -0.20724581E+02 -0.28114670E+02
  0.44651842E+01 -0.23789309E+02 -0.11882714E+02  0.37959538E+02
  0.19314938E+02  0.25713852E+02 -0.54166943E+03 -0.33657813E+03
  0.70614551E+03  0.21372903E+03  0.80236282E+02 -0.66625934E+01
  0.12710116E+03 -0.65174899E+01  0.20572482E+03 -0.91904800E+02
 -0.43451691E+02  0.11079333E+03 -0.87262207E+02  0.19350168E+03
 -0.21782204E+03  0.19717970E+03 -0.23897548E+03  0.95249496E+02
  0.76332977E+02 -0.49345139E+02  0.26176374E+02  0.39268753E+02
 -0.81754929E+02 -0.66510437E+02  0.24783337E+01 -0.23144760E+02
  0.10398346E+03  0.10713031E+03 -0.28724731E+03  0.34307175E+02
  0.36974197E+02  0.81658230E+01 -0.22095411E+02  0.13036776E+01
 -0.11200825E+02  0.97571474E+00  0.54882069E+01  0.21151993E+02
  0.67120991E+01 -0.11383264E+03  0.27709839E+03 -0.45287552E+02
  0.26823547E+02  0.40176468E+02  0.79526615E+01  0.11477461E+02
 -0.35184114E+01  0.10715306E+02  0.56945724E+01 -0.19063520E+02
 -0.72694082E+01 -0.11852451E+02  0.22522437E+03  0.11369880E+03
 -0.33281445E+03 -0.10020544E+03 -0.39448944E+02  0.11468914E+02
 -0.53004150E+02  0.10001610E+02 -0.83203133E+02  0.35805695E+02
  0.21695694E+02 -0.46803162E+02  0.35515350E+02 -0.10584344E+03
  0.98553574E+02 -0.12213637E+03  0.96482056E+02 -0.38166553E+02
 -0.30556108E+02  0.17174088E+02 -0.97377214E+01 -0.15434035E+02
  0.29186674E+02  0.30085253E+02 -0.17299672E+01  0.10782919E+02
 -0.27865283E-01 -0.14160953E+00 -0.46167344E-01 -0.83359635E+00
  0.54028988E+00  0.17667169E-01 -0.23999680E-02 -0.50582860E-01
 -0.34205619E-01  0.24929952E-01 -0.20637266E-01 -0.54828972E-02
 -0.16638442E-02 -0.99061310E-01 -0.61199148E-02  0.16169675E-01
 -0.50423771E+00 -0.87746030E+00 -0.14626429E-02  0.91258921E-02
  0.41810907E-01  0.27339894E-02 -0.15622666E-02  0.32905261E-02
  0.18039156E-01 -0.38937837E-01 -0.11977397E+00 -0.37973851E-01
  0.51543677E+00 -0.18759679E+01  0.63566899E+00  0.28123093E+00
 -0.29566634E+00 -0.18840618E-01 -0.36266062E-01 -0.26874977E+00
 -0.17266949E+00  0.10599524E-01 -0.83736897E-01  0.49956435E+00
  0.68339938E+00  0.18975423E+00 -0.11983262E+01 -0.20601561E+01
  0.58113430E-01  0.15165168E+00  0.12512308E+00  0.19267316E+00
 -0.55146992E-01  0.15980951E+00  0.82305312E-01 -0.42632777E-01
  0.23057375E+01  0.76537257E+00  0.43733454E+01 -0.50523310E+01
  0.28448105E+01  0.51284903E+00 -0.16459599E+01  0.74293798E+00
  0.66224158E-01 -0.41510162E+00  0.26375908E+00  0.37355471E+00
 -0.17590468E+00  0.11372099E+01 -0.12647939E+00  0.25441616E+01
 -0.39932528E+01 -0.41477356E+01  0.13616856E+01 -0.13583241E+00
 -0.12699012E+01 -0.66975020E-02 -0.43774168E-02  0.72404754E+00
 -0.79435599E+00  0.15491712E+00  0.19683876E+01  0.29083941E+01
 -0.72367458E+01  0.59465561E+01 -0.19175699E+01 -0.14585570E+01
  0.16693544E+01 -0.56365871E+00  0.17722520E+01  0.32326117E+01
  0.53729033E+00 -0.88220710E+00 -0.56293684E+00 -0.41296844E+01
 -0.31065302E+01  0.19166174E+01  0.91364346E+01  0.66980743E+01
  0.77398407E+00 -0.30196124E+00 -0.13194684E+01 -0.16660861E+01
  0.88819361E+00 -0.11270266E+01 -0.17106762E+01  0.95284760E-01
 -0.11591568E+02  0.10206954E+02 -0.44386230E+02  0.47346344E+02
 -0.79038382E+00 -0.90883474E+01  0.11115670E+02 -0.19898727E+01
  0.37733057E+00  0.13326263E+01 -0.29739463E+00 -0.21107409E+01
  0.19746448E+01 -0.77565370E+01  0.19142866E+02 -0.19318726E+02
  0.79751487E+01  0.45732677E+02 -0.11700180E+02 -0.21409185E+01
  0.95194101E+01 -0.12891825E+01 -0.70309067E+00 -0.49068880E+01
  0.54949455E+01  0.72287112E+00 -0.51350603E+01 -0.88256531E+01
  0.16213120E+02 -0.95362787E+01 -0.49770889E+01  0.10020866E+01
 -0.38989055E+01  0.27658882E+01 -0.65731020E+01 -0.83604736E+01
 -0.15559012E+00  0.25949469E+01  0.29289787E+01  0.96731539E+01
  0.52264996E+01 -0.65303121E+01 -0.14551663E+02 -0.86602287E+01
 -0.16371937E+01 -0.16511115E+01  0.34544618E+01  0.35504465E+01
 -0.31492510E+01  0.25533752E+01  0.52310610E+01 -0.48787493E-01
  0.20374847E+02 -0.30132751E+02  0.10810121E+03 -0.10528986E+03
 -0.18006439E+02  0.24039797E+02 -0.24310305E+02  0.27824402E+01
 -0.91876066E+00 -0.13190975E+01 -0.37454164E+00  0.39671352E+01
 -0.47484903E+01  0.22527529E+02 -0.60154236E+02  0.38476715E+02
  0.45293003E+00 -0.10749376E+03  0.29633497E+02  0.56231308E+01
 -0.19200821E+02  0.49150085E+01  0.26779366E+01  0.99957170E+01
 -0.12485247E+02 -0.21405020E+01  0.15377274E+01  0.74568510E+01
 -0.10354220E+02  0.10922907E+02  0.13785338E+02  0.83337110E+00
  0.27636354E+01 -0.27910290E+01  0.50508103E+01  0.60138636E+01
 -0.15283442E+00 -0.17226228E+01 -0.27341881E+01 -0.54970150E+01
 -0.42347345E+01  0.50668464E+01  0.30705661E+00  0.80789337E+01
  0.52706480E+00  0.30988748E+01 -0.23904352E+01 -0.23165932E+01
  0.27464485E+01 -0.15124301E+01 -0.44464521E+01  0.11784692E+00
 -0.12952716E+02  0.21251144E+02 -0.73948395E+02  0.71904922E+02
  0.22982941E+02 -0.17152084E+02  0.16589584E+02 -0.19711390E+01
  0.14029668E+00  0.53307498E+00  0.45210415E+00 -0.22865255E+01
  0.31447535E+01 -0.21541489E+02  0.48531139E+02 -0.20743685E+02
 -0.97520981E+01  0.76132248E+02 -0.22496305E+02 -0.30357063E+01
  0.11248891E+02 -0.39207582E+01 -0.22813702E+01 -0.63165541E+01
  0.86511211E+01  0.12434311E+01 -0.15622103E+00 -0.59632380E-01
 -0.90208650E-01  0.19414157E-01  0.73269010E-01 -0.56129467E+00
 -0.63541585E+00 -0.16588993E-01 -0.34606468E-01 -0.21938423E-02
 -0.21088142E-01 -0.10219838E-01  0.62936135E-02  0.10229759E+00
  0.31424814E-02  0.12619577E+00 -0.10478984E-01  0.10643310E+00
  0.63880980E+00 -0.58100116E+00 -0.80984813E-03 -0.32982638E-02
 -0.10336743E-01 -0.12900263E-01 -0.13739295E-01  0.22639142E-01
  0.11596614E+00  0.24706095E+00 -0.15466779E+00 -0.18783575E+00
 -0.65919518E-01 -0.62681043E+00 -0.66545188E+00  0.32444052E-01
  0.13160098E+00  0.13321730E-01 -0.10927582E+00  0.71161747E-01
  0.11962272E-01 -0.13758808E+00 -0.70412159E-01  0.23057576E+00
 -0.63733459E-01 -0.23197371E-02  0.77353519E+00 -0.66607165E+00
 -0.11856483E+00  0.19452100E+00  0.44829208E-01  0.53664814E-02
  0.81992805E-01 -0.22440353E-01  0.17074039E+01  0.56844890E+00
 -0.19279140E+00 -0.48811179E+00 -0.82032901E+00  0.17906553E+01
  0.46447378E+00  0.62934273E+00  0.11496824E+00  0.72347283E-01
  0.16785286E+00  0.25202709E+00  0.64511716E-01 -0.21264601E+01
  0.78551662E+00 -0.27990741E+00  0.20393796E+00 -0.17369803E+01
 -0.49138680E+00  0.25081100E+01 -0.13376951E+00  0.84815377E+00
  0.67785092E-01 -0.21081494E-01  0.27407336E+00 -0.19572496E+00
  0.22916570E+00 -0.89228177E+00  0.14403731E+00  0.62578565E+00
  0.42053264E-01 -0.14299738E+00  0.10011272E+01 -0.10695213E+00
 -0.26902199E+00  0.31509314E-01  0.18015152E+00 -0.22677259E+00
  0.45944665E-01  0.78097397E+00  0.17563754E+00 -0.79983294E+00
 -0.23202593E-01  0.51307887E+00 -0.12497673E+01  0.63095033E-01
  0.27101773E+00 -0.64966005E+00 -0.12470670E+00  0.57328969E-01
 -0.25540155E+00  0.30125933E-01 -0.36262932E+01  0.51153998E-04
  0.65369076E+00  0.12630243E+01  0.59161860E+00 -0.33515158E+01
  0.12459384E+00 -0.92280024E+00  0.16300046E+00 -0.98683946E-02
 -0.39698187E+00 -0.33663473E+00 -0.30247193E-01  0.35409753E+01
 -0.94228369E+00  0.59330601E+00 -0.47572304E-01  0.26288929E+01
 -0.11341673E+00 -0.40985451E+01  0.55726737E+00 -0.15782919E+01
 -0.92821479E-01 -0.86877584E-01 -0.41220182E+00  0.23814104E+00
  0.40369987E-01  0.69174051E-01  0.90490915E-02  0.33020664E-01
  0.11527483E-01  0.12345884E-01  0.26705261E-01  0.19554184E+00
 -0.36173040E+00  0.22097258E-01 -0.12866686E-01  0.62658112E-02
  0.24714431E-01  0.16548367E-01 -0.36080949E-01 -0.25610084E-01
 -0.21156788E-01  0.43353237E-01 -0.31337325E-01  0.13042551E-01
  0.34459084E+00  0.21506377E+00  0.16185859E-01 -0.13301041E-01
  0.14696218E-01  0.17140716E-01  0.11640609E+00 -0.35488158E-01
 -0.61050300E-01 -0.10260254E+00  0.45410369E-01 -0.78796074E-02
 -0.90719387E-02 -0.14850968E+00 -0.58185768E+00 -0.61733756E-01
 -0.32026162E-02  0.21957424E-01  0.52263442E-01  0.55307172E-01
 -0.17401585E-01 -0.41585356E-01  0.76646626E-01 -0.57702400E-02
 -0.12208955E+00  0.50012428E-01  0.47269493E+00  0.20059487E-02
  0.50178029E-01 -0.18123775E-02  0.58514785E-01 -0.23311082E-01
  0.39524499E-01  0.80552042E-01 -0.42998645E-01  0.16749270E-01
  0.31579152E-01 -0.44717081E-02 -0.84887660E-03 -0.49433589E-01
  0.10765206E-01  0.21353498E+00  0.13728052E+00 -0.10284929E-01
  0.20548500E-01  0.99338472E-01  0.17302404E-02  0.41451101E-04
 -0.84679365E-01 -0.11557482E-01 -0.22574198E-01 -0.23921097E-01
 -0.82226358E-02 -0.69644861E-01 -0.13849449E+00  0.20419700E+00
  0.16953167E-01  0.82117133E-02  0.72829008E-01 -0.41823316E-01
  0.10375716E-01 -0.56614611E-01  0.41825403E-01  0.20270184E-01
  0.12032609E-01 -0.24085417E-01 -0.12075845E-01  0.61627734E-02
  0.59546161E-01 -0.69685983E-02  0.10623485E+00  0.54462729E-02
 -0.64947754E-02 -0.79987012E-02 -0.12688860E-01 -0.63994944E-01
 -0.21709124E-01 -0.43794498E-01  0.31835441E-01 -0.27470827E-01
 -0.70910007E-02  0.91979466E-02 -0.11307490E+00 -0.22885030E-01
 -0.13536140E-01  0.18244114E-01 -0.90564966E-01  0.45806579E-02
  0.17037231E-01  0.58723767E-02 -0.15382155E-01 -0.81376947E-03
 -0.10111790E-01 -0.13766922E-01  0.88332891E-02 -0.10245700E-01
  0.28617419E-02  0.21085771E-01  0.25080673E-01 -0.33543896E-01
  0.24984222E-01 -0.45952462E-01 -0.19729603E-01  0.25285017E-01
  0.50980870E-01 -0.13921152E-01 -0.91980696E-02  0.12159725E-01
 -0.17162612E-03 -0.10890554E-01  0.40087324E-01  0.82861662E-01
 -0.52096926E-01 -0.26000412E-01 -0.59353504E-01 -0.32921359E-01
  0.14816161E-01 -0.14302544E-01 -0.12839499E-01  0.24855362E-01
 -0.25451362E-01  0.88601559E-03  0.27688907E-01 -0.54229580E-01
  0.40404368E-01  0.11072409E+00  0.53175785E-01 -0.27590901E-01
  0.21070372E-01  0.30208081E-01  0.12800894E-01  0.44277795E-02
 -0.28233778E-01  0.11693152E-02  0.20908633E-01 -0.11176487E-01
  0.30831585E+01  0.36423465E-02  0.95374249E-02 -0.43797642E-02
 -0.18526373E-02  0.12529453E-02 -0.21983865E-02  0.29568165E-03
  0.14598125E-02  0.46192217E+00  0.57096803E-03  0.68593979E-01
  0.65610945E-01 -0.10962676E-01 -0.29499028E-01 -0.40161174E-01
  0.90372525E-02  0.10792329E-01  0.59456217E+00 -0.58928523E-01
 -0.10835457E+00  0.15614104E-01  0.38582683E-01  0.23725564E-01
  0.37873339E-01 -0.45640215E-01 -0.25683858E-01 -0.58345467E+00
 -0.27269018E+00 -0.13519895E+00 -0.14928317E+00  0.25888458E-01
  0.10878223E+00  0.17128436E+00 -0.17555455E-01 -0.41636076E-01
 -0.47605807E+00  0.18886378E+00  0.18850458E+00  0.15938819E-02
 -0.82812428E-01 -0.16693853E-01 -0.74811757E-01  0.13277733E+00
  0.68222947E-01  0.97611368E-01  0.27176988E+00  0.73444307E-01
  0.79687834E-01 -0.56013237E-02 -0.85544765E-01 -0.14200658E+00
  0.61242133E-02  0.28192678E-01 -0.89809708E-01 -0.11081779E+00
 -0.60269386E-01 -0.10322292E-01  0.58627546E-01 -0.12565222E-01
  0.40889375E-01 -0.88073611E-01 -0.47065701E-01  0.50374344E-02
 -0.12933058E+00 -0.36687320E+00  0.13463667E-02 -0.39664879E-02
  0.91926754E-02 -0.25788704E-02  0.42144693E-02  0.51479936E-02
  0.33288822E-01  0.38233617E+00 -0.14407396E+00  0.14271196E-01
  0.11049573E-01 -0.93471631E-02 -0.82618259E-02 -0.22260591E-02
 -0.10530116E-02 -0.19392333E-02  0.48438215E+00  0.80777757E-01
  0.84854364E-01  0.67027092E-01  0.96795224E-02 -0.77769160E-02
 -0.18757643E-01 -0.34126833E-02  0.10197647E-01 -0.10353539E-01
  0.50584143E+00 -0.11593372E+00 -0.44522554E-01  0.55989955E-01
 -0.29334025E-01  0.31971797E-01 -0.19206980E-01 -0.19130749E+00
  0.67898893E+00  0.13500413E+01 -0.41417088E-01 -0.41389436E-01
 -0.11354161E+00  0.12479116E+00 -0.15671545E+00 -0.16941839E+00
 -0.69109058E+00 -0.15827084E+01  0.77499503E+00 -0.54360230E-01
 -0.76154411E-01  0.21804530E-01  0.12542558E+00  0.97710431E-01
  0.15336754E-01  0.46886271E+00 -0.25143080E+01  0.51227117E+00
  0.20739184E+00 -0.24356622E+00 -0.41955861E+00 -0.88255465E-01
 -0.11599702E+00 -0.16374969E+00  0.60307807E+00 -0.83648962E+00
 -0.31556289E+01  0.47265428E+00  0.62394643E+00 -0.54705191E+00
  0.20412102E+00 -0.19938686E+00  0.61526429E-01  0.66733706E+00
 -0.84022295E+00 -0.36363816E+00 -0.47948975E-01  0.91792941E-01
  0.36664313E+00 -0.50559235E+00  0.43860999E+00  0.55686808E+00
  0.20355389E+01  0.71406549E+00 -0.12435474E+01  0.21483092E+00
 -0.53310115E-01 -0.59347369E-01 -0.33315623E+00 -0.25482255E+00
 -0.24464151E-02 -0.78910601E+00  0.37705989E+01 -0.86769474E+00
 -0.12256937E+01  0.33561516E+00  0.13111095E+01  0.17731486E+00
  0.52530521E+00  0.42007923E+00 -0.23053181E+01  0.16463203E+01
  0.60083599E+01 -0.67770946E+00 -0.16302880E+01  0.13140202E+01
 -0.39495337E+00  0.35773265E+00 -0.20983079E-01 -0.48089164E+00
  0.39525765E+00 -0.48140708E+00  0.16104811E+00 -0.11935354E-01
 -0.33358169E+00  0.43848920E+00 -0.33588856E+00 -0.45440465E+00
 -0.16640767E+01  0.70364141E+00  0.72135723E+00 -0.26408893E+00
  0.13320313E+00  0.60090341E-01  0.20128183E+00  0.18900406E+00
 -0.34622148E-01  0.22574456E+00 -0.15068558E+01  0.90492386E+00
  0.10402929E+01 -0.16921981E+00 -0.10404444E+01 -0.66429377E-01
 -0.44397837E+00 -0.24560232E+00  0.19569387E+01 -0.13762980E+01
 -0.33979952E+01  0.37711105E+00  0.11398211E+01 -0.88892829E+00
  0.24327640E+00 -0.19420272E+00 -0.70902789E-02 -0.20724721E-01
 -0.35504639E-01 -0.82354783E-03  0.36352225E-01 -0.11773664E+00
 -0.11033535E-01  0.95688138E-03 -0.97791515E-02 -0.58923662E-02
  0.11510790E-01 -0.53077191E-02 -0.21679616E-01  0.12743253E+00
  0.43944500E-01 -0.99055991E-02 -0.21604956E-02 -0.19020387E-02
  0.15028873E-02  0.34215365E-01  0.19715220E+00  0.12483913E+00
 -0.11022669E+00 -0.31943321E-01  0.11501913E-02 -0.29224208E-01
 -0.21727003E-01 -0.48656184E-01 -0.12077172E+00  0.44407237E-01
 -0.50276600E-01  0.74237466E-01 -0.13876396E+00  0.50061855E-01
 -0.89441332E-04 -0.19618968E-01  0.77808690E-02  0.11498177E+00
  0.30138892E+00  0.84145181E-01  0.52387480E-01 -0.16962320E+00
  0.13028959E-01  0.83306365E-01  0.12248266E+00 -0.22928389E-01
 -0.18141045E+00 -0.73630512E-01  0.12350224E-01  0.22824010E+00
  0.88408589E-01 -0.56969862E-01  0.44197980E-01  0.42088985E-01
 -0.97412877E-01 -0.15992832E+00 -0.10725375E+01 -0.37769395E+00
  0.20365877E+00 -0.10712838E+00 -0.52147180E-01  0.11348373E+00
  0.12272291E+00  0.21829335E+00  0.90741438E+00  0.27918214E+00
  0.21284492E+00 -0.16413611E+00  0.20872624E+00 -0.26607728E-01
 -0.13638991E+00  0.10097219E+00 -0.90743773E-01 -0.16678727E+00
 -0.49267459E+00 -0.25228685E+00 -0.20995040E+00  0.35344943E+00
 -0.42392891E-01 -0.14291541E+00 -0.18131788E+00  0.37399545E-01
  0.22921517E+00 -0.11525337E-01  0.10362251E+00 -0.50349134E+00
 -0.24221870E+00  0.16809082E+00 -0.94889171E-01 -0.70770025E-01
  0.13145506E+00  0.21850900E+00  0.14192160E+01  0.37012821E+00
 -0.17118193E-01  0.49541607E+00  0.17686056E+00 -0.86773753E-01
 -0.13545221E+00 -0.20977926E+00 -0.10618935E+01 -0.52702361E+00
 -0.14100182E+00 -0.16452020E+00  0.87792039E-01 -0.11034584E+00
  0.22220004E+00 -0.97200029E-01  0.10797976E+00 -0.20363387E-01
 -0.53697564E-02  0.68575102E-02  0.68112351E-02  0.10468056E-01
  0.19557826E-01 -0.29966215E-01  0.26615837E-02 -0.39665846E-03
 -0.27748954E-02 -0.12629429E-01 -0.34522377E-02 -0.19603441E-01
 -0.74741095E-02  0.36278367E-01  0.38917959E-01  0.62133335E-02
  0.52181520E-02  0.47905691E-01  0.42130254E-01  0.10669808E-01
 -0.42659171E-01 -0.48366003E-02 -0.12414150E+00  0.83759092E-02
  0.88774711E-02 -0.24281682E-02  0.65088272E-02 -0.18100817E-01
 -0.99380650E-02 -0.49212314E-02  0.54735458E-03 -0.14428277E-01
 -0.12441480E+00 -0.92068017E-02 -0.31998195E-03  0.24573997E-01
 -0.10163296E+00  0.31056127E-01  0.11012294E-01 -0.45570403E-01
 -0.14161533E+00 -0.41898370E-01  0.22085365E-02 -0.13771434E-01
 -0.37635207E-01 -0.79316162E-02 -0.12239705E-01  0.54416321E-01
 -0.23432044E-01  0.64405203E-01 -0.15231901E+00 -0.39993413E-02
  0.10142058E-01 -0.18101417E-01 -0.84799826E-02  0.34984993E-03
  0.89346394E-02  0.47468557E-03  0.28572041E-02 -0.35473127E-02
  0.14134600E-01 -0.84402598E-02 -0.24490006E-01  0.59575289E-02
 -0.83975270E-02 -0.10783281E-01  0.10519187E-01  0.37295430E-02
  0.78448243E-02  0.11155127E-01  0.20005921E-01  0.62797785E-01
  0.11900892E-01 -0.27039558E-01 -0.19209160E-01  0.50548911E-02
 -0.49631184E-04 -0.94857486E-03 -0.61566602E-02 -0.72145343E-01
  0.32358173E-01 -0.47734085E-01  0.26209855E-01  0.28988879E-01
  0.74443226E-02 -0.39548054E-02  0.37050033E-02  0.76541901E-01
 -0.17525801E-02  0.52079745E-02 -0.92345104E-02  0.14466229E-02
 -0.19333604E-02 -0.76571703E-02  0.36316391E-02 -0.43371283E-02
 -0.36561654E-02  0.67056157E-02  0.16525773E-02  0.18420488E-01
 -0.17318184E-01 -0.72389054E-02 -0.36425989E-02  0.67126667E-02
  0.62284837E-02 -0.25143016E-02 -0.54201256E-02 -0.49585290E-02
  0.72677061E-02  0.95763803E-02  0.33443144E-02  0.68702064E-02
  0.38347978E-02 -0.47801472E-02 -0.56901607E-02  0.15504234E-02
 -0.65200366E-02 -0.13484795E-01 -0.16534761E-01 -0.93058534E-02
 -0.70031774E-02  0.61732740E-03  0.68263332E-02  0.85278712E-02
  0.13020537E-03  0.26661365E+01 -0.11117877E-02  0.34222321E-02
 -0.20794710E-02  0.24010155E-02 -0.40831417E-02 -0.47719330E-02
 -0.29675064E-02 -0.20296485E-02  0.41117507E+00  0.10291319E-01
  0.47319625E-01  0.31215116E-01  0.78935325E-02 -0.25743436E-01
 -0.38405076E-01  0.98825060E-02  0.67149173E-02  0.74506962E+00
  0.48187733E-01 -0.71195960E-01  0.25079396E-01 -0.21259580E-01
  0.67766905E-01  0.48439432E-01 -0.66096783E-02  0.20697495E-01
 -0.39045447E+00 -0.26972127E+00 -0.70841610E-01 -0.73414035E-01
 -0.12673206E-01  0.81827521E-01  0.14244866E+00 -0.26457300E-01
 -0.33021890E-01 -0.66143787E+00 -0.15479177E+00  0.11289430E+00
 -0.54646455E-01  0.28970569E-01 -0.14369094E+00 -0.10134429E+00
  0.25818259E-01 -0.48019908E-01  0.53726792E-01  0.25038397E+00
  0.37336461E-01  0.40437397E-01  0.14270316E-01 -0.59865795E-01
 -0.11061208E+00  0.18749859E-01  0.24053220E-01 -0.40976707E-01
  0.14224786E+00 -0.30323654E-01  0.30423731E-01 -0.44295676E-02
  0.87912492E-01  0.58721393E-01 -0.13916853E-01  0.28919088E-01
  0.74064289E-02 -0.27877736E+00 -0.28779900E+00  0.39281845E-02
 -0.14419554E-02 -0.11547091E-02  0.31535965E-02 -0.72778360E-03
  0.34911863E-02  0.19075761E-01  0.28820461E+00 -0.28949183E+00
  0.22228619E-01  0.63713086E-02 -0.21684170E-02 -0.55248658E-02
 -0.13032343E-02  0.91081448E-02 -0.81327856E-01  0.27268976E+00
  0.13500667E+00  0.54546636E-01  0.37922066E-01 -0.32600060E-01
 -0.10949604E-01  0.19963372E-01  0.26835289E-01  0.87298229E-02
 -0.22350941E-01  0.29820484E+00  0.20726327E-01 -0.52162141E-01
  0.49364645E-01 -0.39931946E-02  0.40589683E-01 -0.22952456E-02
 -0.10790926E+00  0.83676583E+00  0.63060778E+00 -0.68363369E-01
 -0.99837855E-02 -0.66430080E-02 -0.12207447E-01 -0.76347291E-01
 -0.15965883E+00 -0.35241809E+00 -0.65478712E+00  0.11052341E+01
 -0.12858538E+00  0.48155159E-01  0.30722397E-02  0.79846025E-01
  0.70853233E-01 -0.98708272E-01  0.10073023E+01 -0.17845335E+01
 -0.80092162E+00 -0.46188459E-01 -0.14296985E+00  0.64327180E-01
 -0.35780568E-01 -0.21253629E+00 -0.38209793E+00  0.28986448E+00
  0.20012248E+00 -0.21629677E+01 -0.28332931E+00  0.53812021E+00
 -0.36693877E+00  0.39688271E-01 -0.34019375E+00 -0.44371121E-01
  0.21445230E+00 -0.62239212E+00  0.50726289E+00  0.12845743E+00
 -0.50081644E-01  0.10264900E-01 -0.10842125E-01  0.25324762E+00
  0.47339383E+00  0.98013794E+00 -0.77179390E+00 -0.15949878E+01
  0.26540798E+00 -0.23207286E+00 -0.71822703E-01 -0.27238446E+00
 -0.25130802E+00  0.26421374E+00 -0.21762607E+01  0.31028824E+01
  0.20128746E+01 -0.15856741E+00  0.15671609E+00 -0.83239712E-02
  0.12464355E+00  0.52468282E+00  0.88304269E+00 -0.13928699E+01
 -0.54484451E+00  0.43236532E+01  0.72512794E+00 -0.13013943E+01
  0.80244911E+00 -0.15787379E+00  0.71791559E+00  0.87640762E-01
 -0.90506792E-01  0.29343450E+00 -0.64716011E+00 -0.85126460E-02
  0.86700082E-01 -0.19545073E-01  0.22539424E-01 -0.21825898E+00
 -0.35119236E+00 -0.77049863E+00  0.13025292E+01  0.10195141E+01
 -0.17070550E+00  0.19100779E+00  0.10148967E+00  0.19473384E+00
  0.22605895E+00 -0.21595259E+00  0.12541904E+01 -0.14151649E+01
 -0.76735258E+00  0.20479742E+00 -0.57303511E-01 -0.61315093E-01
 -0.67472458E-01 -0.35682023E+00 -0.55211598E+00  0.12503937E+01
 -0.19497246E+00 -0.25232332E+01 -0.48834428E+00  0.95700103E+00
 -0.50639713E+00  0.15538096E+00 -0.43736929E+00 -0.24403555E-02
  0.58859177E-02 -0.32317564E-01  0.18789642E-02  0.81562936E-01
 -0.10188312E+00 -0.16970166E-02  0.10929942E-01 -0.80213174E-02
 -0.64339079E-02  0.12977692E-01 -0.20233873E-01 -0.87966025E-02
  0.10940552E+00  0.84022999E-01 -0.43360288E-02  0.49938266E-02
 -0.24055215E-02  0.34415219E-02  0.13273510E-01  0.11690063E+00
  0.11301345E+00 -0.53855576E-01  0.71545350E-02  0.26712853E-02
 -0.65927994E-02 -0.43166098E-02 -0.16314678E-01 -0.76610744E-01
  0.31374007E-01 -0.51425260E-01  0.29726736E-01 -0.10468842E+00
  0.35839195E-02  0.31228568E-01 -0.15449938E-02  0.10545071E-01
  0.31877272E-01  0.21496820E+00  0.69084771E-01 -0.39078760E+00
  0.10721207E+00 -0.50794110E-02 -0.28492520E-01  0.88592887E-01
  0.17780274E-01 -0.14039850E+00 -0.13015021E-01 -0.97526431E-01
 -0.13987684E+00 -0.35487771E+00 -0.44129573E-01  0.44898987E-02
  0.47013648E-01 -0.73569477E-01 -0.59302974E-01 -0.65177017E+00
 -0.36309087E+00 -0.23424511E+00 -0.13430981E+00 -0.32746036E-01
  0.60699228E-01  0.33282299E-01  0.85893095E-01  0.49057350E+00
  0.21044838E+00  0.23838104E+00  0.10888346E-01 -0.39147530E-01
  0.10908669E+00 -0.18488687E+00  0.53481311E-01 -0.13602662E+00
 -0.10266942E+00 -0.34125087E+00 -0.22209170E+00  0.21323264E+00
 -0.73764920E-01 -0.42999983E-01  0.28910642E-01 -0.12368566E+00
 -0.24522580E-01  0.17222381E+00 -0.45565147E-01  0.26528454E+00
  0.10084933E+00  0.18232720E+00  0.10636825E+00 -0.40960643E-01
 -0.71175873E-01  0.91745019E-01  0.48435759E-01  0.88375968E+00
  0.36494935E+00  0.37522811E+00  0.38870537E+00  0.11076623E+00
 -0.87760687E-01 -0.44668164E-01 -0.12374670E+00 -0.56823587E+00
 -0.31550622E+00 -0.23784252E+00 -0.28017616E+00  0.20619076E+00
 -0.18672664E+00  0.23123896E+00 -0.66964269E-01  0.16415411E+00
 -0.73595010E-02 -0.61682202E-02  0.89407265E-02  0.50872304E-02
  0.11877637E-01  0.35297506E-01 -0.39307773E-01  0.14423404E-02
  0.44433936E-03 -0.74655705E-04 -0.16662818E-02 -0.57203509E-02
 -0.14137457E-01 -0.46855919E-02  0.45804936E-01  0.35633922E-01
  0.30760854E-02 -0.23319600E-02  0.12941353E-01  0.44963382E-01
  0.54211020E-02 -0.12041886E-01 -0.95001571E-02 -0.11241354E+00
 -0.19248098E-01  0.27269039E-02 -0.30035621E-02  0.59964396E-02
 -0.13195523E-02 -0.46101660E-02  0.39474592E-02 -0.64694285E-02
  0.15680537E-01 -0.11271560E+00 -0.32720950E-02 -0.51417272E-02
  0.48678979E-01 -0.73544323E-01  0.30441813E-01  0.96263885E-02
 -0.39520711E-01 -0.17735022E+00 -0.45016337E-01  0.51114708E-02
 -0.11839547E-01 -0.81728883E-02 -0.23926420E-01  0.60986388E-02
  0.40335935E-01 -0.35920464E-02  0.41258313E-01 -0.14260805E+00
 -0.34774819E-02  0.18476749E-01 -0.10441232E-01 -0.13517551E-01
  0.34676611E-02 -0.14249105E-02  0.14872111E-02 -0.32633503E-02
 -0.21993518E-02  0.17342657E-01 -0.17490787E-02 -0.15205594E-01
  0.49438253E-02 -0.87333806E-02 -0.87372363E-02  0.14296354E-02
  0.37051601E-03  0.55464767E-02  0.15304494E-03  0.21174494E-01
  0.39107338E-01  0.80265291E-02 -0.22919754E-01 -0.76330574E-02
 -0.77880700E-02 -0.70988768E-04  0.10868076E-01  0.58998386E-02
 -0.64436138E-01  0.41344304E-01 -0.33050463E-01  0.35609435E-01
  0.15621076E-01  0.52525136E-02 -0.76148473E-02  0.10637492E-01
  0.63588083E-01  0.85605606E-02  0.37736224E-02 -0.12569183E-02
 -0.73067169E-03 -0.55869143E-02 -0.57651363E-02 -0.35552052E-03
 -0.52995868E-02 -0.63682459E-02  0.34755846E-02  0.33890575E-02
  0.20352293E-01 -0.10258363E-01 -0.16343703E-02 -0.76323338E-02
  0.61682425E-02  0.74977577E-02 -0.10669790E-02 -0.31994097E-02
 -0.56459676E-02  0.10195385E-01  0.95578730E-02  0.39921701E-02
  0.18846112E-02 -0.28111460E-03 -0.14161777E-03 -0.63958354E-02
 -0.16010746E-03  0.83076097E-02 -0.32676377E-02 -0.81046112E-02
 -0.20230603E-02 -0.86054020E-02  0.55735968E-02  0.49315915E-02
  0.46230294E-02  0.80582750E-03
