  0.58852777E+01 -0.96291304E-01 -0.24346260E-02  0.59140641E-01
 -0.63641071E-02 -0.26449412E-02 -0.31942982E-01 -0.10096008E-02
  0.14919641E-01 -0.31421110E-02 -0.46499595E-02 -0.67822039E-02
  0.15032778E-01  0.16458445E+01 -0.18067592E+00  0.30474961E+00
 -0.21605857E+00 -0.49374825E+00 -0.62353790E-01 -0.34158051E-01
 -0.12912387E+00  0.10613750E+00  0.29181529E-01 -0.23050727E-01
  0.40541515E-01 -0.11224717E+00  0.10501717E+02  0.15741062E+01
 -0.14308901E+01 -0.48761311E+00  0.94652450E+00 -0.30434477E+00
  0.10839930E+01 -0.10534966E+00 -0.51447511E+00 -0.91966093E-01
  0.29239577E+00  0.20149441E-01 -0.39589244E+00 -0.23581301E+02
  0.36677198E+01 -0.80632627E-01  0.43846779E+01  0.81138687E+01
  0.20209017E+01  0.32430315E+01  0.27812090E+01 -0.52667058E+00
  0.26251918E+00  0.75711906E+00 -0.62242740E+00  0.95958686E+00
 -0.55303650E+02 -0.63127480E+01  0.83682976E+01 -0.49186344E+01
 -0.69345770E+01  0.62089682E+01 -0.60723085E+01  0.13838013E+01
  0.38213997E+01 -0.14319527E+00 -0.18019360E+01  0.50669366E+00
  0.23809681E+01  0.59686279E+02 -0.30755753E+02 -0.12747594E+02
 -0.16911804E+02 -0.32807720E+02 -0.12712320E+02 -0.21192411E+02
 -0.12855251E+02 -0.71364403E-01 -0.14239577E+01 -0.39535253E+01
  0.33811417E+01 -0.32125998E+01  0.87687027E+02  0.13251464E+02
 -0.15531276E+02  0.25012054E+02  0.18020905E+02 -0.21276217E+02
  0.13908660E+02 -0.47290392E+01 -0.11022417E+02  0.16285952E+01
  0.42395010E+01 -0.24118853E+01 -0.54046259E+01 -0.23993408E+02
  0.89517502E+02  0.42279510E+02  0.22479492E+02  0.54392288E+02
  0.30301132E+02  0.50255482E+02  0.23656769E+02  0.32564287E+01
  0.28625791E+01  0.82307177E+01 -0.78404713E+01  0.53785992E+01
 -0.66045975E+02 -0.16009598E+02  0.10073885E+02 -0.35849014E+02
 -0.18812134E+02  0.25561323E+02 -0.14358001E+02  0.62677321E+01
  0.13022477E+02 -0.24407015E+01 -0.45216808E+01  0.35019357E+01
  0.52684317E+01 -0.57186352E+02 -0.10306863E+03 -0.47426025E+02
 -0.90657444E+01 -0.39237549E+02 -0.30380722E+02 -0.50804016E+02
 -0.19044098E+02 -0.49842196E+01 -0.29108648E+01 -0.74697680E+01
  0.79306431E+01 -0.42882528E+01  0.20778378E+02  0.76332722E+01
 -0.15185137E+01  0.16232573E+02  0.66888428E+01 -0.10187650E+02
  0.54846725E+01 -0.28345733E+01 -0.53408060E+01  0.10432415E+01
  0.18286180E+01 -0.16316251E+01 -0.18638296E+01  0.42999359E+02
  0.40907440E+02  0.17649246E+02 -0.67038953E+00  0.99691086E+01
  0.10768867E+02  0.18582962E+02  0.55952597E+01  0.21914597E+01
  0.12064838E+01  0.24707308E+01 -0.28870993E+01  0.12680759E+01
  0.10030657E+00  0.17061023E+01  0.14686527E+01  0.67665517E-01
  0.21641413E-01  0.18892784E-01  0.10023634E-01 -0.12924849E-01
 -0.28599402E-01 -0.64662802E-02  0.11706680E-01 -0.93984343E-02
  0.17487409E-01 -0.23059969E+00 -0.14013823E+01  0.18092794E+01
 -0.91769516E-01  0.27110618E-01  0.17508436E-02 -0.26233229E-02
  0.22305543E-01  0.89679919E-02  0.32947335E-01  0.14318242E-01
  0.24811622E-01 -0.15941350E-02 -0.90277523E+00  0.23125534E+01
  0.16092967E+01 -0.14453238E+00 -0.20665839E+00  0.51915783E+00
  0.49450493E+00 -0.19916792E+00  0.18426664E+00  0.25234297E-01
  0.38722821E-01 -0.42649657E-02 -0.26182026E-01 -0.56744325E+00
  0.44611597E+00  0.11730175E+01 -0.47925121E+00  0.65121371E+00
 -0.45957804E-01  0.45501199E+00  0.25943023E+00  0.15283298E+00
  0.99556029E-01 -0.21310529E-01  0.37541655E+00 -0.42286009E-01
  0.20739956E+01  0.21575239E+02  0.34665108E+01 -0.20396402E+01
  0.26834297E+01  0.28675489E-01  0.42604321E+00  0.28829843E+00
  0.78976136E+00  0.17124642E-01 -0.31698339E-01  0.52003264E+00
 -0.44703302E+00 -0.10670328E+00 -0.74782786E+01  0.15177947E+02
  0.26179514E+01  0.20770683E+01 -0.10762348E+01 -0.44632077E+00
  0.60240370E+00 -0.58553094E+00 -0.10602016E+01 -0.88225491E-01
 -0.11664104E+01 -0.34999728E+00  0.25958815E+02 -0.27454483E+02
 -0.54103336E+01  0.15304747E+01  0.93126850E+01 -0.87061577E+01
 -0.62785416E+01  0.45617943E+01 -0.37337401E+01 -0.49913472E+00
  0.41627297E+00 -0.20554547E+00  0.59320409E-01  0.14931066E+02
 -0.24322109E+02 -0.18978456E+02  0.66896200E+01 -0.11191241E+02
  0.25101948E+01 -0.91349792E+01 -0.48819113E+01 -0.36994448E+01
  0.46167007E+00  0.15925082E+01 -0.77618060E+01 -0.19510707E+01
 -0.18649813E+02 -0.15214693E+03  0.53326965E+02  0.57327814E+01
 -0.26576281E+02 -0.19274545E+00  0.15754473E+00  0.28831234E+01
 -0.84430447E+01 -0.36592317E+00  0.27528572E+01 -0.42047195E+01
  0.30515223E+01  0.14867091E+02 -0.28944748E+02 -0.87118652E+02
 -0.89018812E+01 -0.27807983E+02  0.10147782E+02  0.44683981E+01
 -0.29643440E+01  0.63139424E+01  0.88454924E+01 -0.19191800E+01
  0.97981710E+01  0.39162436E+01 -0.15608711E+03  0.10050726E+03
  0.31733870E+02  0.67168102E+01 -0.41432083E+02  0.47361160E+02
  0.28008730E+02 -0.28612595E+02  0.24360201E+02  0.73379183E+01
 -0.59432826E+01  0.31006489E+01  0.61421555E+00 -0.10763946E+03
  0.12835527E+03  0.69382751E+02 -0.43361359E+02  0.56389217E+02
 -0.13272401E+02  0.51118820E+02  0.27908691E+02  0.29593458E+02
 -0.90813322E+01 -0.13741107E+02  0.45609161E+02  0.17076019E+02
  0.49405960E+02  0.36311185E+03 -0.26420923E+03  0.41176748E+01
  0.81804565E+02 -0.21720428E+01 -0.76053786E+01 -0.19046158E+02
  0.28341923E+02  0.31033659E+01 -0.15050347E+02  0.12041607E+02
 -0.86199579E+01 -0.58249126E+02  0.21876076E+03  0.15515247E+03
  0.21008593E+02  0.99964432E+02 -0.32595764E+02 -0.15503604E+02
  0.48927860E+01 -0.20159592E+02 -0.26689789E+02  0.95943127E+01
 -0.29238539E+02 -0.13632692E+02  0.39192969E+03 -0.18186565E+03
 -0.12129234E+03 -0.57435070E+02  0.56430359E+02 -0.11213168E+03
 -0.54315079E+02  0.70347794E+02 -0.67493713E+02 -0.30095579E+02
  0.18334641E+02 -0.94074984E+01 -0.31521273E+01  0.27239185E+03
 -0.28597070E+03 -0.12101059E+03  0.12336749E+03 -0.12470566E+03
  0.26024109E+02 -0.12104428E+03 -0.59888287E+02 -0.85995743E+02
  0.29719173E+02  0.37946320E+02 -0.11199421E+03 -0.46891850E+02
 -0.50657455E+02 -0.37947949E+03  0.38515723E+03 -0.23199800E+02
 -0.10095909E+03  0.50711761E+01  0.14311046E+02  0.33573044E+02
 -0.37079788E+02 -0.60635834E+01  0.25830381E+02 -0.14170277E+02
  0.10315927E+02  0.79237274E+02 -0.35955151E+03 -0.10834154E+03
 -0.33607834E+02 -0.13744238E+03  0.42688854E+02  0.22823517E+02
 -0.24746647E+01  0.25041639E+02  0.33539780E+02 -0.14638426E+02
  0.35408264E+02  0.18950533E+02 -0.44368753E+03  0.16978250E+03
  0.19025841E+03  0.10587994E+03 -0.16499313E+02  0.12066158E+03
  0.45466450E+02 -0.74402390E+02  0.81906021E+02  0.44979855E+02
 -0.21132381E+02  0.10045573E+02  0.49591427E+01 -0.27212524E+03
  0.29296631E+03  0.10778041E+03 -0.14709779E+03  0.12872285E+03
 -0.21798767E+02  0.12947227E+03  0.51874660E+02  0.10150548E+03
 -0.36791386E+02 -0.41881744E+02  0.12185918E+03  0.52135880E+02
  0.17340685E+02  0.14838106E+03 -0.17882974E+03  0.15429539E+02
  0.43413681E+02 -0.26469879E+01 -0.74090319E+01 -0.18376602E+02
  0.16659882E+02  0.33483200E+01 -0.13998299E+02  0.58607693E+01
 -0.43770046E+01 -0.36554958E+02  0.17909184E+03  0.23982544E+02
  0.19982361E+02  0.63960342E+02 -0.19503311E+02 -0.11998042E+02
 -0.21119621E+00 -0.10841630E+02 -0.14879584E+02  0.71827703E+01
 -0.14873816E+02 -0.91093121E+01  0.18463350E+03 -0.63689987E+02
 -0.10000370E+03 -0.59487553E+02 -0.83337975E+01 -0.48281860E+02
 -0.12824591E+02  0.28396820E+02 -0.35691711E+02 -0.22169373E+02
  0.81618071E+01 -0.34571950E+01 -0.25228517E+01  0.91842926E+02
 -0.11355025E+03 -0.39262447E+02  0.60758072E+02 -0.51565228E+02
  0.64481277E+01 -0.51903687E+02 -0.14617392E+02 -0.41567413E+02
  0.15849867E+02  0.16073256E+02 -0.48541443E+02 -0.20367508E+02
  0.33230793E-01 -0.53760558E-02 -0.43271579E-01 -0.82253766E+00
  0.10927147E+00 -0.62830341E-02  0.32827888E-01  0.20675361E-02
  0.11074953E-01  0.14030250E-01 -0.93817338E-02  0.58153607E-02
 -0.90415105E-02 -0.72160554E-02  0.44827167E-01  0.94339013E-01
 -0.15674746E+00 -0.88599294E+00  0.21040725E-01  0.11656060E-01
 -0.43813027E-02  0.28248453E-02  0.18651810E-01  0.15717313E-01
  0.10290854E-01 -0.74585453E-02  0.32696807E+00  0.55384904E+00
 -0.20601004E+00  0.22753012E+00 -0.38133556E+00  0.28293085E+00
 -0.22165217E+00 -0.19600344E+00 -0.30326170E+00 -0.53036105E-01
 -0.64323902E-01 -0.25258502E-01  0.27758271E-01  0.84868366E+00
  0.71870285E+00  0.10409750E+00 -0.34669641E+00  0.68305485E-01
  0.17950527E+00  0.17103159E+00 -0.16034061E+00  0.11909677E+00
 -0.90939045E-01  0.77516763E-02  0.50704512E-02 -0.44594161E-01
  0.19773264E+01 -0.63938504E+00  0.54355240E+00  0.34600694E+01
  0.14479407E+01 -0.65015870E+00 -0.12161551E+01  0.79876208E+00
 -0.60558915E+00  0.30918711E+00  0.64186800E+00  0.23445682E+00
  0.25567997E+00 -0.23858166E+00 -0.21537187E+01 -0.21538348E+00
  0.19827142E+00  0.62378964E+01 -0.14610815E+01 -0.79967242E+00
  0.97321606E+00  0.28241432E+00 -0.71557987E+00 -0.40822547E-01
 -0.35631901E+00 -0.30096269E+00  0.27642244E+00 -0.35841660E+01
  0.20953629E+01  0.21262350E+01  0.82936811E+01 -0.25825262E+01
  0.12673424E+01  0.22965708E+01  0.32046335E+01  0.59451181E+00
  0.29327148E+00  0.60926776E-01 -0.18911137E+00 -0.77316456E+01
 -0.86913090E+01  0.70329517E+00  0.29154104E+00  0.37658501E+01
 -0.15267448E+01 -0.19037495E+01  0.18705777E+01 -0.38128948E+00
  0.16374692E+01  0.94264507E-01 -0.12111473E+01  0.54479063E+00
 -0.11841910E+02  0.12982109E+02 -0.46878176E+01  0.11409553E+02
  0.11456190E+02  0.28962116E+01  0.70374966E+01 -0.53894968E+01
  0.32251692E+01 -0.26807203E+01 -0.33563080E+01 -0.14099931E+01
 -0.16444159E+01  0.45781116E+01  0.22667101E+02  0.25675013E+01
 -0.19983488E+02 -0.88170254E+00  0.60731277E+01  0.46235952E+01
 -0.60956392E+01 -0.36376827E+01  0.50197077E+01  0.35221523E+00
  0.22886686E+01  0.17762288E+01 -0.40170135E+01  0.62177038E+01
 -0.81950226E+01 -0.85565052E+01 -0.26114576E+02  0.52662058E+01
 -0.33671968E+01 -0.57750206E+01 -0.89394627E+01 -0.96039099E+00
 -0.44176665E+00 -0.38639605E+00  0.38240880E+00  0.16040436E+02
  0.22648804E+02 -0.38160076E+01  0.32987604E+01 -0.11050161E+02
  0.41704865E+01  0.42172184E+01 -0.41252756E+01  0.30131924E+00
 -0.52030263E+01 -0.83111125E+00  0.49567080E+01 -0.11959333E+01
  0.23355225E+02 -0.34282349E+02  0.11538242E+02 -0.49848267E+02
 -0.40598740E+02 -0.39050007E+01 -0.14526565E+02  0.10634095E+02
 -0.49407692E+01  0.58253703E+01  0.57160435E+01  0.24022808E+01
  0.39250431E+01 -0.89171886E+01 -0.57658356E+02 -0.79275866E+01
  0.56511951E+02 -0.33630768E+02 -0.73403583E+01 -0.97860651E+01
  0.12670937E+02  0.95948782E+01 -0.10938619E+02 -0.13207884E+01
 -0.39759085E+01 -0.31204891E+01  0.31317451E+01 -0.26248662E+01
  0.75624285E+01  0.10054381E+02  0.23560148E+02 -0.29456441E+01
  0.29910412E+01  0.40049524E+01  0.69776058E+01  0.23051453E+00
  0.35383257E+00  0.45363480E+00 -0.17931674E+00 -0.85573311E+01
 -0.16594070E+02  0.34918072E+01 -0.66410446E+01  0.96621037E+01
 -0.31863918E+01 -0.24729843E+01  0.26573007E+01  0.11516501E+00
  0.40185375E+01  0.10184889E+01 -0.46337080E+01  0.70501119E+00
 -0.15520617E+02  0.24251537E+02 -0.78417478E+01  0.39622375E+02
  0.31915634E+02  0.84966397E+00  0.10047779E+02 -0.63451672E+01
  0.19262160E+01 -0.35821593E+01 -0.31948893E+01 -0.13733149E+01
 -0.27612696E+01  0.26133039E+01  0.42539505E+02  0.70027022E+01
 -0.41647888E+02  0.34347591E+02  0.24487429E+01  0.63871117E+01
 -0.86457167E+01 -0.66765866E+01  0.73050594E+01  0.12362032E+01
  0.21852674E+01  0.16885307E+01 -0.16071808E+00  0.14123529E-01
 -0.13230795E+00  0.34138903E-01  0.59729517E-01 -0.50168329E+00
 -0.57280517E+00  0.43802690E-01 -0.13694670E-01  0.17453469E-01
  0.33055807E-02  0.23122185E-02  0.62880963E-02  0.53357899E-01
 -0.19458124E-01  0.69014668E-01  0.63686967E-02  0.54668400E-01
  0.58147484E+00 -0.50669259E+00 -0.12543347E-01  0.45777820E-01
 -0.29289942E-01 -0.17757392E-01 -0.45786143E-03 -0.10528304E-01
 -0.54030935E-02  0.18703188E+00 -0.11604701E+00 -0.90121031E-01
 -0.24077912E+00 -0.58423525E+00 -0.78927040E-01 -0.25518278E-01
  0.17570584E+00  0.64967513E-01 -0.28771311E-01  0.21496506E-01
  0.58259081E-01 -0.21440379E+00  0.46478160E-01  0.59997041E-01
 -0.10545157E+00  0.87879360E-01  0.31408739E+00 -0.76883554E+00
 -0.22707506E+00  0.97065151E-01 -0.84792078E-01 -0.42242594E-02
 -0.36972158E-01  0.13577212E-01  0.13984450E+01  0.21562596E+00
  0.81785202E+00  0.42129420E-01 -0.45740336E+00  0.19257107E+01
  0.10962820E+01 -0.13253962E+00  0.64441621E-01 -0.76614618E-01
  0.80381989E-01  0.60075343E-01 -0.42204820E-02 -0.88858902E+00
  0.68705350E+00 -0.11165399E+00 -0.39081052E-02 -0.11788683E+01
 -0.96058542E+00  0.22603960E+01  0.79304039E-01 -0.20290291E+00
  0.10524018E+00  0.22646756E+00  0.12000297E-01  0.20639112E-02
 -0.38604550E-01 -0.64558333E+00  0.15047131E+00  0.23604786E+00
  0.51776189E+00  0.65631807E+00 -0.64743757E-01  0.23293778E+00
 -0.31635427E+00 -0.24677654E+00  0.73522210E-01 -0.12383265E+00
 -0.23125414E-01  0.63801259E+00 -0.17993660E+00  0.41443497E-01
 -0.30626380E+00  0.13222782E+00 -0.38505167E+00  0.11026430E+01
  0.38552052E+00 -0.14338493E+00  0.16477841E+00  0.44638623E-01
 -0.27766572E-01 -0.14409492E-01 -0.16779747E+01  0.35500044E+00
 -0.75000978E+00  0.44501577E-01  0.16619509E+00 -0.29565685E+01
 -0.11524153E+01  0.10906345E+00  0.63353598E-01  0.74749351E-01
 -0.98273456E-01 -0.23684593E+00  0.99928252E-01  0.12862396E+01
 -0.10268888E+01 -0.34922292E-03  0.42514104E+00  0.18869686E+01
  0.92553735E+00 -0.33864343E+01 -0.96434176E-01  0.88395417E-01
 -0.27669013E-01 -0.47842044E+00 -0.87917507E-01 -0.50919611E-01
  0.67794323E-01  0.43764465E-01 -0.85234791E-02  0.55448759E-01
 -0.75007230E-02  0.26949579E-02  0.40005319E-01  0.17787796E+00
 -0.21966220E+00  0.13119746E-01  0.17033216E-01  0.48258598E-02
  0.93731321E-02  0.41226272E-01 -0.45745872E-01 -0.44874884E-02
 -0.56989055E-01  0.66878623E-03  0.49436130E-02 -0.93553104E-02
  0.20852254E+00  0.17780302E+00 -0.10008898E-01  0.40826781E-03
 -0.44579692E-02 -0.96555203E-02  0.32994185E-01 -0.50840318E-01
 -0.82209945E-01 -0.16789144E+00 -0.35853390E-01 -0.74349880E-01
  0.36870696E-01 -0.67959309E-01 -0.23842363E+00 -0.75435221E-01
  0.58410536E-01  0.19143851E-01  0.72812736E-01 -0.35581663E-01
 -0.75313270E-01 -0.37497941E-02 -0.53745732E-02  0.86594522E-01
 -0.85272789E-01 -0.75303733E-01  0.15578286E+00 -0.57227295E-01
 -0.19145610E-01  0.38526919E-01 -0.33226523E-02 -0.25027826E-01
 -0.24258217E-01  0.56879047E-01 -0.87987781E-01 -0.18437514E-01
 -0.26629930E-02  0.94258226E-02  0.11299052E-01 -0.10933794E-01
  0.11623717E-02  0.17373119E+00  0.16964650E+00 -0.10166548E-01
 -0.62725316E-02  0.30380951E-01 -0.23155002E-01 -0.33405375E-01
 -0.44372205E-01  0.21909753E-01 -0.50504357E-02 -0.34750249E-01
  0.32919925E-02 -0.52613996E-01 -0.17605484E+00  0.17251746E+00
  0.14515134E-01  0.11617799E-01  0.42745028E-01 -0.67311865E-02
 -0.12199853E-01 -0.23588117E-01  0.42618997E-01  0.23207843E-01
  0.16206969E-01 -0.71131135E-02 -0.15745319E-01  0.93277022E-02
  0.54416270E-03 -0.92576861E-01  0.75096667E-01 -0.57170995E-01
 -0.11325012E-01 -0.45626003E-01 -0.51696181E-01 -0.54596663E-02
  0.18047408E-02 -0.57304047E-01  0.28688207E-01 -0.29154113E-02
 -0.48920624E-02 -0.11745230E-02 -0.72187781E-01 -0.10533947E+00
 -0.46112321E-01 -0.93352422E-02 -0.77548146E-01  0.10806181E-01
  0.16295979E-01 -0.91340803E-02 -0.37854970E-01  0.59323609E-02
 -0.70786555E-02  0.43499954E-02 -0.12444423E-01 -0.23848298E-02
  0.11797853E-01 -0.69076233E-02 -0.14922633E-01 -0.16607359E-01
 -0.28959990E-01  0.37629217E-01  0.27335903E-02 -0.21362375E-01
  0.14246407E-01  0.54619014E-02  0.60001425E-02  0.29482828E-01
 -0.15042796E-01 -0.14008234E-01 -0.39528869E-02  0.18516524E-02
 -0.39649025E-01  0.28208222E-01 -0.11501376E-01 -0.40830545E-01
  0.14463946E-01  0.18475296E-02 -0.75901337E-02  0.18725945E-01
  0.10570665E-01 -0.12890499E-04  0.23008054E-01 -0.51339734E-01
  0.28110504E-01 -0.61789118E-02  0.81891306E-02 -0.29036775E-01
  0.28971056E-01  0.64823441E-02  0.76583959E-02  0.27483685E-02
 -0.17355926E-01  0.15277425E-01  0.51793228E-02 -0.15141429E-01
  0.88938065E+01 -0.15078265E-01 -0.25140064E-01  0.22020804E-01
  0.25030831E-02 -0.20642309E-01 -0.30851012E-01  0.35875998E-02
 -0.87216613E-03  0.24480883E-01  0.15102468E-01 -0.19631796E-01
  0.20391542E-01  0.61357880E+00  0.13776004E+00 -0.57032764E+00
 -0.28906604E-01 -0.35331151E+00 -0.21978436E+00 -0.14012581E+00
  0.54715615E-01  0.14554125E+00 -0.24320902E-02 -0.52757952E-01
 -0.18868657E-01 -0.78913510E-01  0.26584976E+02 -0.91476983E+00
 -0.10767021E+01  0.83116639E+00  0.18041840E+01 -0.63989371E+00
  0.51932621E+00  0.50343698E+00 -0.63642454E+00 -0.97818613E+00
 -0.29772168E+00  0.35066119E+00 -0.68079126E+00  0.31529951E+01
 -0.22581005E+01  0.95738220E+01  0.81222594E+00  0.97320185E+01
  0.23350554E+01  0.16431693E+01  0.61718774E+00 -0.20582497E+01
 -0.12018208E-01  0.19452524E+01 -0.24020819E+00  0.93675071E+00
 -0.12845279E+03  0.76379833E+01  0.81046038E+01 -0.12054642E+02
 -0.15387235E+02  0.68140392E+01 -0.15058469E+01 -0.48598976E+01
  0.49816790E+01  0.52011757E+01  0.22433045E+01 -0.60794914E+00
  0.40673323E+01 -0.78451294E+02 -0.14396162E+02 -0.34657211E+02
 -0.25212047E+01 -0.49333847E+02 -0.11871572E+02 -0.53334064E+01
 -0.59590969E+01  0.88634005E+01  0.10821543E+01 -0.11399438E+02
  0.47652416E+01 -0.32855814E+01  0.21243150E+03 -0.14004525E+02
 -0.17843674E+02  0.43910172E+02  0.43445210E+02 -0.19488859E+02
  0.13466700E+01  0.12091711E+02 -0.13215184E+02 -0.10340990E+02
 -0.57268867E+01 -0.15506172E+01 -0.88107119E+01  0.24853136E+03
  0.78768326E+02  0.34186371E+02  0.19544324E+01  0.10425355E+03
  0.27955257E+02  0.85331831E+01  0.15262190E+02 -0.16240067E+02
 -0.35532908E+01  0.25211716E+02 -0.16891586E+02  0.51664085E+01
 -0.16578397E+03  0.30796995E+01  0.14645019E+02 -0.58538589E+02
 -0.48412689E+02  0.21371473E+02 -0.61169744E+00 -0.10880287E+02
  0.14118614E+02  0.89713211E+01  0.56740236E+01  0.40566044E+01
  0.80941868E+01 -0.28710034E+03 -0.11082729E+03  0.47830534E+01
  0.12881907E+01 -0.99204010E+02 -0.28727613E+02 -0.78436446E+01
 -0.15181052E+02  0.13331136E+02  0.39052055E+01 -0.23992599E+02
  0.21218475E+02 -0.36269217E+01  0.51397835E+02  0.44691315E+01
 -0.40350657E+01  0.25961411E+02  0.18408005E+02 -0.80434484E+01
  0.32910937E+00  0.31243172E+01 -0.52550678E+01 -0.28733051E+01
 -0.18864108E+01 -0.22640371E+01 -0.26912498E+01  0.11311130E+03
  0.48871567E+02 -0.13456261E+02 -0.14472980E+01  0.34871857E+02
  0.10456634E+02  0.32485311E+01  0.52217913E+01 -0.40892696E+01
 -0.13860579E+01  0.83094473E+01 -0.88487806E+01  0.87602514E+00
  0.69597125E-01  0.16769733E+01  0.15545816E+01 -0.55449344E-02
  0.69705725E-01  0.23653561E-01  0.12845128E-01  0.86718909E-02
 -0.45932859E-01  0.31570096E-01  0.45554500E-01 -0.21642284E-01
  0.12889817E-01 -0.21921284E+00 -0.16087894E+01  0.17624187E+01
 -0.13460630E+00 -0.59290789E-02 -0.83502904E-02 -0.34621306E-01
  0.11610981E-01 -0.14968857E-01 -0.25111863E-01  0.17095665E-01
 -0.55068284E-02 -0.23103977E-01 -0.48869604E+00  0.17512939E+01
  0.14671191E+01 -0.29812479E+00  0.43485564E+00  0.74070942E+00
  0.47886825E+00 -0.15530139E-01  0.28587043E+00 -0.90406001E-01
  0.12089236E+00 -0.10466528E+00 -0.22864468E+00  0.26475126E+00
 -0.10255442E+01  0.12023135E+01 -0.79612106E+00 -0.14503479E+00
  0.48347481E-01  0.24352115E+00  0.33930928E+00  0.17734116E+00
 -0.29564551E+00 -0.23605781E-01  0.26259267E+00 -0.14518070E+00
  0.32442265E+01  0.19304138E+02 -0.17855986E+02  0.15392789E+01
  0.12891808E+01 -0.13034649E+01  0.78133225E-01 -0.28128737E+00
  0.13791045E+01 -0.29651862E+00 -0.13774165E+01  0.90447134E+00
 -0.48520064E+00 -0.38545475E+01  0.17391617E+02  0.15856245E+02
  0.32506828E+01  0.17471524E+01  0.54408711E+00 -0.87338269E-01
  0.11546888E+01 -0.39241767E+00  0.82400143E-01 -0.41304436E+00
 -0.31734008E+00 -0.47280583E+00  0.15891955E+02 -0.71328111E+01
 -0.82937183E+01 -0.10363102E+01 -0.37894361E+01 -0.13196980E+02
 -0.97192097E+01  0.57880574E+00 -0.50687680E+01  0.15093237E+00
 -0.15454119E+01  0.22428341E+01  0.37367296E+01 -0.37251844E+01
  0.30780756E+00 -0.38300512E+01  0.13541659E+02 -0.41292338E+01
  0.24990661E+01 -0.36101904E+01 -0.68872385E+01 -0.33844929E+01
  0.48587589E+01  0.16653652E+01 -0.54408011E+01 -0.14610329E+01
 -0.35525452E+02 -0.55185825E+02  0.18234506E+03 -0.17191864E+02
 -0.18231384E+02  0.10715060E+02  0.41820860E+00  0.49597664E+01
 -0.10105695E+02  0.44890794E+00  0.11448022E+02 -0.59232826E+01
  0.21196375E+01  0.48971527E+02 -0.17984662E+03 -0.10086093E+02
 -0.28173094E+02 -0.18571411E+02 -0.34781046E+01  0.46446905E+00
 -0.91365309E+01  0.32334211E+01  0.29283720E+00  0.53791580E+01
  0.33645313E+01  0.52979574E+01 -0.98831818E+02  0.35010025E+02
  0.81809647E+02  0.42378189E+02  0.32127884E+02  0.71276749E+02
  0.47292526E+02 -0.79754682E+01  0.26064089E+02  0.57404060E+01
  0.62453079E+01 -0.13935454E+02 -0.23157148E+02  0.37681503E+02
 -0.22015532E+02  0.41568680E+02 -0.89377487E+02  0.34201309E+02
 -0.14441485E+02  0.12126778E+02  0.37069687E+02  0.21612261E+02
 -0.29737091E+02 -0.11194305E+02  0.31738434E+02  0.18420135E+02
  0.11772128E+03 -0.16025236E+02 -0.54052002E+03  0.52717880E+02
  0.66749588E+02 -0.31852322E+02 -0.27905672E+01 -0.18864182E+02
  0.26960798E+02  0.23407800E+00 -0.36213848E+02  0.12973186E+02
 -0.41116314E+01 -0.15707159E+03  0.53367798E+03 -0.18824307E+03
  0.96771606E+02  0.59688568E+02  0.96216154E+01  0.33605175E+01
  0.27191832E+02 -0.63597374E+01 -0.57947135E+00 -0.20041166E+02
 -0.10695271E+02 -0.15405687E+02  0.25402480E+03 -0.12169589E+03
 -0.29696802E+03 -0.17765755E+03 -0.10246048E+03 -0.16805844E+03
 -0.91728355E+02  0.29707184E+02 -0.58331955E+02 -0.25739077E+02
 -0.14582020E+02  0.34748569E+02  0.59372269E+02 -0.14180336E+03
  0.90961334E+02 -0.17497099E+03  0.24299307E+03 -0.93683578E+02
  0.25937103E+02 -0.10940236E+02 -0.83610352E+02 -0.59765331E+02
  0.78051529E+02  0.30359772E+02 -0.77565636E+02 -0.57330204E+02
 -0.15175063E+03  0.14136122E+03  0.67243634E+03 -0.63942413E+02
 -0.95142914E+02  0.37566513E+02  0.25746934E+01  0.25226885E+02
 -0.30201874E+02  0.11459293E+01  0.47971268E+02 -0.10312353E+02
  0.43723440E+01  0.18913742E+03 -0.64964209E+03  0.40084793E+03
 -0.13516269E+03 -0.75677643E+02 -0.12140693E+02 -0.98627491E+01
 -0.34648930E+02  0.30085962E+01 -0.86283255E+00  0.28143951E+02
  0.13283780E+02  0.17091980E+02 -0.29154053E+03  0.17865942E+03
  0.44016385E+03  0.25832788E+03  0.12581498E+03  0.18186658E+03
  0.75668427E+02 -0.42528137E+02  0.58712418E+02  0.38270676E+02
  0.19351196E+02 -0.37923859E+02 -0.65868088E+02  0.21195496E+03
 -0.14264766E+03  0.25605197E+03 -0.27863403E+03  0.10939056E+03
 -0.14928992E+02 -0.43717604E+01  0.85104996E+02  0.72570892E+02
 -0.90291138E+02 -0.36729889E+02  0.84085495E+02  0.70076569E+02
  0.67721512E+02 -0.90769203E+02 -0.30035889E+03  0.26721813E+02
  0.47102432E+02 -0.15028220E+02 -0.20477100E+00 -0.11208222E+02
  0.12107579E+02 -0.20266438E+01 -0.22364059E+02  0.21444893E+01
 -0.19921618E+01 -0.77146408E+02  0.27997412E+03 -0.22317944E+03
  0.64471100E+02  0.32618530E+02  0.58598595E+01  0.59874973E+01
  0.15801618E+02  0.81914449E+00  0.12750367E+01 -0.13325418E+02
 -0.56135445E+01 -0.63814483E+01  0.12182439E+03 -0.87194756E+02
 -0.22319072E+03 -0.12528762E+03 -0.51943050E+02 -0.73651093E+02
 -0.21513718E+02  0.20706057E+02 -0.21602539E+02 -0.18770325E+02
 -0.10114023E+02  0.15116210E+02  0.26225405E+02 -0.10590907E+03
  0.75341293E+02 -0.12101202E+03  0.11209222E+03 -0.47404510E+02
  0.42671257E+00  0.63914061E+01 -0.32075298E+02 -0.31445267E+02
  0.37990162E+02  0.16272751E+02 -0.33418060E+02 -0.29758163E+02
  0.24743641E-01 -0.24780037E+00  0.32477383E-01 -0.70758224E+00
  0.77269542E+00  0.21704480E-01  0.73262006E-02 -0.54433793E-02
 -0.36484736E-02  0.15552453E-01  0.11511405E-01  0.95175020E-02
 -0.77193901E-02 -0.48369352E-01 -0.53220801E-01  0.27144585E-01
 -0.81413311E+00 -0.71973479E+00 -0.70226764E-04 -0.60768463E-02
  0.16783386E-01 -0.50986302E-02 -0.15607438E-01  0.57154219E-02
  0.16545273E-01 -0.27624261E-01  0.42223510E+00 -0.98611236E-01
  0.50277317E+00 -0.16155949E+01  0.44995165E+00  0.60947478E+00
 -0.26007742E+00 -0.34951413E+00 -0.61507735E-01 -0.29398155E+00
 -0.57447206E-01 -0.17995073E-01 -0.72372675E-01  0.12762966E+01
  0.26164579E+00  0.47269124E+00 -0.10257168E+01 -0.19976234E+01
  0.18526942E+00  0.29332149E+00 -0.20163959E+00  0.15762202E+00
 -0.21016262E+00 -0.20759078E-01  0.75109005E-01 -0.30883992E+00
  0.23981123E+01  0.29899120E+01  0.38449600E+01 -0.60386229E+01
  0.53788691E+01 -0.93953526E+00 -0.15277853E+01  0.59264237E+00
  0.45906553E+00  0.24649298E+00 -0.10305214E+00  0.32214963E+00
  0.46169204E+00  0.16696634E+01  0.25706762E+00  0.28278368E+01
 -0.46109810E+01 -0.72205906E+01  0.34772471E+00 -0.62179738E+00
 -0.14041897E-01  0.11932107E+01  0.11926311E+00  0.61168361E-01
 -0.12217854E+00  0.74488103E-01 -0.42425365E+01  0.35861957E+00
 -0.69054890E+01  0.77307911E+01  0.14447308E+01 -0.51289425E+01
  0.42940632E+00  0.37216489E+01  0.11370012E+01  0.24206257E+01
 -0.55311292E-01  0.61113585E-01  0.43589982E+00 -0.11186956E+02
  0.14551839E+01 -0.46096087E+01  0.70924864E+01  0.82799072E+01
  0.54562348E+00 -0.19091223E+01  0.63213462E+00 -0.97554809E+00
  0.27594106E+01  0.64862490E-01 -0.13592871E+01  0.23405161E+01
 -0.17754061E+02 -0.32034550E+01 -0.41930237E+02  0.41079239E+02
 -0.18051514E+02  0.25384109E+01  0.90485382E+01 -0.25573387E+01
 -0.52479219E+01 -0.22733593E+01  0.16716584E+01 -0.19437447E+01
 -0.34734039E+01 -0.11303489E+02  0.17556185E+02 -0.22370165E+02
  0.15778043E+02  0.52471004E+02 -0.31812954E+01  0.27775533E+01
 -0.23356986E+00 -0.10081250E+02  0.12472677E+01 -0.56565034E+00
  0.53981125E-01  0.12582926E+00  0.12362516E+02 -0.29632864E+01
  0.15124091E+02 -0.18801893E+02 -0.13831274E+02  0.12536343E+02
  0.10004864E+01 -0.93945026E+01 -0.36175585E+01 -0.51194935E+01
  0.14203262E+01 -0.24957808E-01 -0.76139683E+00  0.25606962E+02
 -0.82127504E+01  0.11993702E+02 -0.10493735E+02 -0.15479229E+02
 -0.24436884E+01  0.37523031E+01  0.70967054E+00  0.28187838E+01
 -0.75910473E+01  0.22493187E-01  0.46240826E+01 -0.53346510E+01
  0.38124294E+02 -0.81857128E+01  0.10164819E+03 -0.78550079E+02
  0.12163009E+02  0.46451297E-01 -0.17560549E+02  0.37782581E+01
  0.13861210E+02  0.52900157E+01 -0.42033958E+01  0.37402475E+01
  0.76729031E+01  0.27311661E+02 -0.54518936E+02  0.45628464E+02
 -0.14268176E+02 -0.10502531E+03  0.78711662E+01 -0.59193978E+01
  0.21227322E+01  0.23136658E+02 -0.59244928E+01  0.94676512E+00
  0.14095345E+01  0.77875793E-01 -0.12606328E+02  0.52987642E+01
 -0.10864912E+02  0.19476120E+02  0.18500380E+02 -0.88927746E+01
 -0.17200900E+01  0.67320638E+01  0.26062744E+01  0.29826610E+01
 -0.15832289E+01 -0.24634516E+00  0.30302536E+00 -0.16824036E+02
  0.83268948E+01 -0.88709040E+01  0.17254645E+00  0.14521972E+02
  0.19288082E+01 -0.16344374E+01 -0.16025695E+01 -0.28889387E+01
  0.53860931E+01  0.74160635E-01 -0.41329079E+01  0.36643448E+01
 -0.25644224E+02  0.11694124E+02 -0.68230270E+02  0.47731461E+02
  0.49299583E+01 -0.33478413E+01  0.10701688E+02 -0.15946397E+01
 -0.10438580E+02 -0.35907743E+01  0.26091223E+01 -0.24007339E+01
 -0.50249081E+01 -0.22422714E+02  0.41399734E+02 -0.25003632E+02
  0.22523797E+00  0.66093277E+02 -0.54813418E+01  0.45410833E+01
 -0.25613079E+01 -0.15686406E+02  0.53152466E+01 -0.38827556E+00
 -0.17855605E+01 -0.56493258E+00 -0.25739521E+00 -0.51444802E-01
 -0.39007924E-01  0.43471344E-01  0.74577093E-01 -0.69018120E+00
 -0.77091730E+00  0.18789889E-01 -0.30679218E-01  0.34278046E-01
  0.70777461E-02  0.17007650E-02  0.12116459E-01  0.30931160E-01
  0.82304358E-01  0.23780584E-01 -0.61587133E-02  0.14854145E+00
  0.73189169E+00 -0.68215251E+00  0.67674113E-02  0.98737925E-02
 -0.13763633E-01 -0.28919922E-01 -0.11603952E-02  0.28128896E-01
  0.15583676E+00 -0.97631477E-02 -0.42719722E-01  0.55609424E-01
 -0.76401174E-01 -0.72838414E+00 -0.35610980E+00  0.81875384E-01
  0.17080718E+00 -0.30333633E-01 -0.31908482E-01  0.57391774E-01
  0.27769839E-01 -0.52173842E-01  0.24948266E+00  0.12350981E+00
 -0.15202741E+00  0.21870522E+00  0.53911513E+00 -0.62828910E+00
 -0.21726985E+00 -0.81490837E-02 -0.29228793E-01 -0.10110051E-01
 -0.15235766E-01  0.31288318E-01  0.17942055E+01 -0.47697359E+00
 -0.24683045E-01 -0.73759902E+00 -0.31411223E-01  0.23973179E+01
  0.15254402E+01  0.46166000E+00 -0.19089139E+00 -0.40453416E+00
  0.24325489E+00  0.47338761E-01 -0.12414199E+00 -0.10261517E+01
  0.34687656E+00 -0.13719416E+00 -0.56109309E+00 -0.19106921E+01
 -0.12889605E+01  0.28899508E+01  0.31973648E+00  0.39896643E+00
  0.91862559E-01  0.74149251E-01  0.17311738E+00 -0.22030468E+00
  0.19139688E+00 -0.29637605E+00 -0.89744151E-01  0.34440777E-03
  0.12633979E+00  0.17837121E+00  0.34260511E+00 -0.52784592E-01
 -0.35431856E+00  0.11950551E+00  0.18184207E+00 -0.15287530E+00
 -0.12142629E-02  0.38059655E+00 -0.70801198E+00 -0.47004503E+00
  0.36706585E-01 -0.10262800E+00 -0.90509474E+00 -0.71891248E-01
  0.41418591E+00  0.51909387E-02  0.73546290E-01  0.61649166E-01
 -0.10198504E+00 -0.11583489E+00 -0.30275669E+01  0.20220096E+01
  0.34253961E+00  0.11947128E+01 -0.63510936E+00 -0.44640865E+01
 -0.18234404E+01 -0.84736711E+00  0.57081997E+00  0.75149286E+00
 -0.48013154E+00 -0.24022443E-01  0.20686176E+00  0.15877695E+01
 -0.71108866E+00  0.99898326E+00  0.13696938E+01  0.26519346E+01
  0.18384991E+01 -0.53081532E+01 -0.50006747E+00 -0.82502490E+00
 -0.16206495E+00 -0.16357309E+00 -0.40980053E+00  0.16522449E+00
 -0.80586374E-02  0.50992239E-01 -0.46632241E-01  0.57858132E-01
  0.29589588E-01 -0.29866926E-01  0.44593319E-01  0.20724244E+00
 -0.33956417E+00  0.48757140E-01  0.48252717E-02  0.75157727E-02
  0.82745329E-02  0.56242995E-01 -0.98413788E-02 -0.85247047E-02
 -0.81652962E-02  0.10179363E-01 -0.32878403E-01  0.63941111E-02
  0.30926961E+00  0.19301081E+00  0.51544080E-02 -0.95572881E-02
  0.14922715E-01 -0.64172186E-02  0.19160559E-02 -0.24454542E-02
 -0.16382515E+00 -0.21728694E-01  0.84944487E-01 -0.70919216E-01
  0.61331503E-01 -0.12808955E+00 -0.38097063E+00 -0.58370434E-01
  0.67949355E-01  0.16139146E-01  0.56471497E-01 -0.82536153E-02
 -0.59724025E-01  0.79807997E-01  0.33527710E-01  0.72642326E-01
 -0.10801912E+00 -0.34897956E-02  0.36352581E+00 -0.57958066E-01
 -0.35505168E-01  0.12366364E-02  0.40800601E-01 -0.18490655E-01
 -0.46349317E-02  0.14545527E-01 -0.12120492E+00  0.26173398E-01
  0.17550852E-02 -0.28536871E-01  0.22547290E-01 -0.36351152E-01
 -0.60174358E-02  0.28420085E+00  0.16398446E+00 -0.12288247E-01
  0.14442493E-01  0.60371332E-01  0.38244717E-01  0.32651134E-01
 -0.77243626E-01 -0.35003494E-01  0.14984455E-01  0.15117689E-01
 -0.19099511E-01 -0.49697436E-01 -0.15599817E+00  0.25729859E+00
  0.33024964E-02 -0.99182781E-03  0.71319520E-01 -0.75824678E-01
  0.36760569E-01 -0.49347986E-01  0.15868418E-01  0.38285632E-01
  0.23324167E-01 -0.39113779E-01 -0.30983375E-01  0.13260115E-01
  0.37964739E-01 -0.74268162E-01  0.11632289E+00 -0.17346490E-01
  0.15348020E-01 -0.14875908E-01 -0.52558880E-01 -0.71550250E-01
 -0.61885454E-02 -0.24182135E-01  0.37889171E-02 -0.25238233E-01
 -0.21548858E-02  0.12035027E-01 -0.14105135E+00 -0.92943013E-01
 -0.53878658E-01 -0.32849424E-01 -0.84194541E-01  0.31174354E-01
 -0.46395548E-02  0.12672111E-01 -0.28512161E-01 -0.13265371E-01
 -0.14615446E-01  0.36233847E-02 -0.12471825E-01  0.34783303E-02
  0.54068267E-02 -0.35035559E-02  0.55042446E-01  0.23584511E-01
 -0.25574237E-01  0.69150329E-02 -0.15520843E-01  0.11701882E-01
  0.12512359E-01 -0.23976656E-01  0.11502409E-02  0.91396831E-02
  0.85549615E-02 -0.30781738E-01  0.11815183E-01  0.77101648E-01
  0.19891473E-01 -0.14418865E-01 -0.48151333E-01 -0.46777278E-01
  0.32677677E-01  0.10109332E-01  0.22690780E-03  0.29887984E-01
 -0.23127504E-01  0.21396788E-01  0.23422491E-01 -0.10521829E+00
  0.46248101E-01 -0.85954962E-04  0.24128253E-01  0.10098126E-01
  0.15944388E-01  0.24146425E-01  0.21453381E-01  0.39750673E-02
 -0.21658877E-01  0.59070811E-02  0.15631013E-01 -0.13315893E-01
  0.30724745E+01  0.76932688E-02  0.10582104E-01 -0.58678426E-02
  0.86863562E-02  0.23237041E-02 -0.16314250E-02  0.22063470E-02
  0.30517471E-02  0.31540650E+00 -0.10881312E-01  0.51532704E-01
  0.60170829E-01  0.84916502E-02 -0.18651346E-01 -0.24970859E-01
  0.24080008E-01 -0.41201664E-03  0.70605505E+00 -0.14244080E+00
 -0.29646527E-01 -0.12706629E-01 -0.95824562E-02 -0.33969921E-02
  0.17386444E-01 -0.78530967E-01 -0.11982952E-01 -0.42120481E+00
 -0.20498922E+00 -0.70140362E-01 -0.13760924E+00 -0.42224448E-01
  0.85511677E-01  0.73424160E-01 -0.67239933E-01  0.15587627E-01
 -0.89627135E+00  0.41788441E+00 -0.50209496E-01  0.68723977E-01
  0.28690731E-01  0.34792382E-01 -0.43728631E-01  0.22312868E+00
  0.29185694E-01  0.65906465E-01  0.19188380E+00  0.25963048E-01
  0.69747448E-01  0.35327673E-01 -0.73112071E-01 -0.53085875E-01
  0.43332022E-01 -0.21014431E-01  0.26427591E+00 -0.27628177E+00
  0.10059512E+00 -0.50584864E-01 -0.29864948E-01 -0.44461355E-01
  0.33647086E-01 -0.14697210E+00 -0.26645195E-01  0.16860802E-01
 -0.18605262E+00 -0.38714591E+00 -0.19328044E-03  0.40252996E-03
  0.75271167E-03  0.54476932E-02  0.79560243E-02  0.55059046E-03
  0.20514991E-01  0.39720565E+00 -0.19083656E+00 -0.12558008E-01
  0.56398660E-02 -0.12297943E-01 -0.14556027E-01 -0.61569135E-02
  0.10029856E-01  0.10009073E-01  0.30681634E+00  0.34232044E+00
  0.98892391E-01  0.69215238E-01  0.82950518E-02 -0.18969622E-01
  0.55852693E-01 -0.31100797E-01  0.77327038E-02 -0.19496197E+00
  0.34152463E+00 -0.10556674E+00 -0.18567832E-01  0.55548735E-03
 -0.31484786E-01  0.53078610E-01  0.60641043E-01 -0.30647779E+00
  0.81640363E+00  0.18649312E+01 -0.98093085E-01  0.15951090E-01
  0.17376810E-01 -0.39560460E-01 -0.20320363E+00 -0.74637711E-01
 -0.73014015E+00 -0.19144686E+01  0.81253171E+00  0.19620959E+00
 -0.52492671E-01  0.88517666E-01  0.17049301E+00  0.12281353E+00
 -0.20673338E+00  0.48533574E+00 -0.15024738E+01 -0.17705137E+01
 -0.81606110E-03 -0.53666764E+00 -0.37227353E+00  0.75344294E-02
 -0.40956616E+00  0.40251583E+00  0.89858896E+00  0.10686445E+01
 -0.16356421E+01  0.29005784E+00  0.37916356E+00 -0.13871599E-01
  0.33012235E+00 -0.34580475E+00 -0.33433402E+00  0.10481234E+01
 -0.77934951E+00 -0.19115534E+01  0.12393999E+00  0.55828344E-01
 -0.70680201E-01  0.11313993E+00  0.58049357E+00  0.31924832E+00
  0.22701540E+01  0.16197052E+01 -0.96915627E+00 -0.33665836E+00
 -0.14552671E+00 -0.21495458E+00 -0.52067465E+00 -0.32353055E+00
  0.57284433E+00 -0.12134342E+01  0.19404649E+01  0.37635963E+01
 -0.62870938E+00  0.10511742E+01  0.11378069E+01 -0.29707568E-01
  0.86152846E+00 -0.11126767E+01 -0.29988582E+01 -0.20589962E+01
  0.24830685E+01 -0.22141758E-01 -0.89734024E+00  0.17300200E+00
 -0.71507877E+00  0.67783278E+00  0.56816953E+00 -0.79848272E+00
  0.23965521E+00  0.80937093E+00  0.18386710E-01 -0.11181236E+00
  0.65899372E-01 -0.10855013E+00 -0.42357111E+00 -0.30929345E+00
 -0.19041709E+01 -0.49399413E-01  0.43354791E+00  0.93478858E-01
  0.24635492E+00  0.13785356E+00  0.41312331E+00  0.21510725E+00
 -0.42922240E+00  0.70117199E+00 -0.47726721E+00 -0.19355592E+01
  0.54693979E+00 -0.56250000E+00 -0.84684217E+00  0.39356496E-01
 -0.54770637E+00  0.81452745E+00  0.24183493E+01  0.72689992E+00
 -0.10589314E+01 -0.23238602E+00  0.54398221E+00 -0.20291322E+00
  0.43034214E+00 -0.41715693E+00 -0.29115313E+00 -0.90023018E-02
 -0.35391401E-01 -0.47154613E-02  0.19855537E-01 -0.11723322E+00
 -0.10261105E-01  0.60877353E-02 -0.11590884E-01 -0.67245774E-02
  0.96493699E-02 -0.22004316E-01 -0.56211911E-02  0.11911504E+00
  0.25769383E-01 -0.13206675E-01 -0.57847798E-03 -0.63171280E-02
 -0.14825935E-02  0.97160041E-01  0.14064240E+00  0.12654924E+00
  0.90184137E-02  0.10824889E+00  0.98466850E-03 -0.39058451E-01
  0.21360934E-01 -0.68189758E-02 -0.69581389E-01  0.23204977E-01
 -0.33772092E-01 -0.23201564E-01 -0.16431103E-01  0.35661332E-01
 -0.24787609E-01 -0.15851654E-01  0.41659132E-01 -0.95431058E-03
  0.32939357E+00  0.11949617E+00 -0.34582306E-01 -0.11245042E+00
  0.58247320E-01  0.44278201E-01  0.32697480E-01  0.79446398E-02
 -0.27802205E+00  0.99982262E-01 -0.18884204E+00  0.14989614E+00
 -0.30045878E-01 -0.12822230E-01  0.70558429E-01  0.67012231E-02
 -0.54927103E-01 -0.52163047E+00 -0.76617789E+00 -0.38275307E+00
  0.93988597E-01 -0.80029541E+00 -0.46852093E-01  0.19828326E+00
 -0.19820786E+00 -0.20384856E-01  0.73622519E+00  0.23355690E+00
  0.24254851E+00  0.40519953E+00  0.11749785E-01 -0.76143026E-01
  0.65943301E-01  0.78227103E-01 -0.24041748E+00 -0.48859108E-01
 -0.53506446E+00 -0.33032447E+00 -0.10122341E+00  0.79143226E-01
 -0.14064234E+00 -0.84364593E-01  0.29860293E-02 -0.22253856E-01
  0.39246804E+00 -0.24812710E+00  0.40944195E+00 -0.17673939E+00
 -0.78235686E-01  0.72178841E-01 -0.16227911E+00  0.10302574E-01
  0.85755765E-01  0.64045298E+00  0.11233282E+01  0.36713567E+00
 -0.16331939E+00  0.12432957E+01  0.20128110E+00 -0.23927684E+00
  0.27385575E+00  0.72312951E-01 -0.94199342E+00 -0.33690757E+00
 -0.17330156E+00 -0.81343490E+00  0.69725700E-01  0.41456182E-01
 -0.43618816E-03 -0.84605157E-01  0.24982798E+00 -0.22805035E-01
 -0.59726276E-02  0.38705333E-02  0.30002026E-02  0.19159811E-02
  0.18420031E-01 -0.37724920E-01  0.35234529E-02 -0.43825810E-02
 -0.67331116E-02 -0.10876592E-01 -0.79003610E-02 -0.13564546E-01
 -0.40359162E-02  0.42511482E-01  0.42690057E-01  0.78176372E-02
 -0.44241245E-02  0.61757568E-01  0.38225949E-01  0.16911129E-01
 -0.45007329E-01  0.18286873E-01 -0.83427310E-01  0.43182421E-01
  0.80693141E-02 -0.15373635E-02  0.29610461E-01 -0.18918576E-01
 -0.18943192E-01 -0.15242502E-01 -0.12218371E-01 -0.21460388E-01
 -0.98122180E-01 -0.44038400E-03  0.17151916E-01  0.91914497E-02
 -0.88108547E-01  0.29710809E-01  0.37761100E-01 -0.42912245E-01
 -0.14925539E+00 -0.86556077E-01  0.32728361E-02 -0.97887143E-02
 -0.35554547E-01 -0.30815806E-01 -0.29502630E-01  0.11506282E-01
 -0.96649565E-02  0.11226374E+00 -0.22778022E+00  0.95754513E-03
  0.19735225E-01 -0.19949600E-01 -0.14575392E-01  0.80723651E-02
  0.10257791E-01  0.98831533E-03  0.21253307E-02  0.44467158E-03
  0.30331463E-01 -0.68215728E-02 -0.16475894E-01  0.66600144E-02
 -0.96909404E-02 -0.23368846E-02  0.10803204E-01  0.18352592E-03
  0.94600804E-02  0.34825664E-02  0.29143482E-01  0.68724394E-01
  0.15268686E-01 -0.34583663E-02 -0.26248896E-01 -0.41180067E-02
 -0.69923671E-02  0.78354776E-02 -0.15067246E-01 -0.50502360E-01
  0.26632210E-01 -0.38117900E-01  0.12489505E-01  0.38269714E-01
 -0.23778919E-01 -0.45978688E-02 -0.10741331E-01  0.55188525E-01
 -0.19089220E-01  0.50233081E-02 -0.68038441E-02  0.13171526E-01
 -0.79407506E-02 -0.15828493E-02  0.69405888E-02 -0.26731647E-02
 -0.18833795E-02  0.10679698E-01  0.77929986E-02  0.25170865E-01
 -0.12785461E-01 -0.85407831E-02 -0.88489465E-02  0.11496037E-01
 -0.64758724E-03 -0.79743117E-02 -0.92306355E-03 -0.26192795E-03
  0.58631450E-02  0.11213571E-01  0.88310167E-02  0.19518092E-02
  0.98038791E-03 -0.22055171E-02  0.15052840E-02  0.49419217E-02
 -0.49593602E-02 -0.28198513E-02 -0.11953373E-01 -0.12248963E-01
 -0.72131343E-02  0.10401812E-01 -0.17990726E-02 -0.28054372E-02
  0.18662047E-02  0.27312078E+01 -0.36635625E-03  0.16809824E-02
  0.35598597E-02  0.75279060E-02  0.53007551E-03  0.95740211E-03
 -0.22847110E-02 -0.28182077E-03  0.21439908E+00  0.15668213E-01
  0.39947953E-01  0.18864460E-01  0.18349141E-01 -0.73838937E-02
 -0.29964810E-01  0.16750785E-01  0.58596502E-02  0.98324704E+00
 -0.38888179E-01 -0.89483634E-02 -0.30634860E-01 -0.57423551E-01
  0.13029806E-01  0.31853251E-01 -0.39872222E-01  0.66098981E-02
 -0.71482241E-01 -0.26525635E+00 -0.19658716E-01 -0.33415090E-01
 -0.51787484E-01  0.35274655E-01  0.85669100E-01 -0.48909988E-01
 -0.21501373E-01 -0.13290062E+01  0.17191924E+00 -0.47023814E-01
  0.52566618E-01  0.13115124E+00 -0.12865188E-01 -0.10077954E+00
  0.11846806E+00  0.88568963E-02 -0.13872872E+00  0.21173362E+00
 -0.49534775E-02  0.75430046E-02  0.31798296E-01 -0.33703379E-01
 -0.59091616E-01  0.35570819E-01  0.11184798E-01  0.40687090E+00
 -0.11250210E+00  0.64376891E-01 -0.24939284E-01 -0.85930586E-01
 -0.26775305E-02  0.72211981E-01 -0.74090540E-01 -0.24171598E-01
  0.18235698E-01 -0.32615590E+00 -0.29267043E+00  0.70642792E-02
  0.11300357E-02 -0.19541867E-02  0.65887645E-02  0.25641057E-03
  0.29901182E-03  0.10992620E-01  0.29850316E+00 -0.32224560E+00
 -0.13626590E-01 -0.15000730E-02 -0.56463708E-02 -0.13415892E-01
  0.31011614E-02  0.13834986E-01 -0.92273317E-02  0.24425700E+00
  0.56881361E-01  0.36258154E-03  0.63643634E-01 -0.37808137E-03
 -0.32947320E-01  0.38247399E-01  0.19941088E-01 -0.57335585E-01
  0.87612152E-01  0.25150669E+00 -0.19707844E-01 -0.44863455E-01
  0.16167350E-01 -0.10398515E-01  0.50344795E-01  0.68640888E-01
 -0.23492482E+00  0.11852227E+01  0.87067664E+00 -0.62521160E-01
  0.42712395E-02  0.31809576E-01  0.21999139E-01 -0.92716336E-01
 -0.10461420E+00 -0.57572049E+00 -0.91379118E+00  0.12106152E+01
  0.14713532E+00  0.49721979E-01  0.31173522E-01  0.14988387E+00
  0.74236989E-01 -0.24920762E+00  0.37146533E+00 -0.15066242E+01
 -0.33582765E+00  0.13240385E+00 -0.49595785E+00 -0.17519760E+00
  0.14915366E-01 -0.31701410E+00 -0.11277884E+00  0.11722956E+01
 -0.33704275E+00 -0.16070231E+01 -0.73385954E-01  0.44775620E+00
 -0.89496613E-01  0.11555022E+00 -0.42885175E+00 -0.43839580E+00
  0.61520100E+00 -0.11530800E+01  0.13902968E+00  0.11537028E+00
 -0.13625572E-01 -0.11211419E+00 -0.90618193E-01  0.34417909E+00
  0.43181032E+00  0.19090472E+01 -0.30285782E+00 -0.14655379E+01
 -0.29066688E+00 -0.22451898E+00 -0.12008685E+00 -0.50865209E+00
 -0.31707209E+00  0.65367371E+00 -0.86626565E+00  0.25727079E+01
  0.11919090E+01 -0.25942808E+00  0.98266917E+00  0.50214672E+00
  0.11235261E+00  0.75492078E+00  0.13290590E+00 -0.35606389E+01
  0.50929976E+00  0.30332546E+01  0.46690196E+00 -0.93843842E+00
  0.33491963E+00 -0.23293012E+00  0.92977613E+00  0.81740063E+00
 -0.38443807E+00  0.52484918E+00 -0.42313319E+00 -0.31547219E-01
 -0.23082055E-01  0.98553777E-01  0.48045237E-01 -0.29371864E+00
 -0.38383645E+00 -0.16131201E+01  0.93166280E+00  0.74328411E+00
  0.15688562E+00  0.21910544E+00  0.11658287E+00  0.44385308E+00
  0.28195137E+00 -0.46593124E+00  0.43430272E+00 -0.11887656E+01
 -0.43771562E+00  0.14430624E+00 -0.56061119E+00 -0.36049956E+00
 -0.12475538E+00 -0.52396160E+00 -0.43358773E-01  0.28472090E+01
 -0.78438574E+00 -0.16446295E+01 -0.40643525E+00  0.59259111E+00
 -0.32095200E+00  0.95902145E-01 -0.59256899E+00 -0.44462156E+00
  0.10362735E-02 -0.26521128E-01  0.73475327E-03  0.78305662E-01
 -0.87907068E-01 -0.87850466E-02  0.68914331E-02 -0.58439672E-02
 -0.10781296E-01  0.83343238E-02 -0.22290353E-01  0.50302148E-02
  0.79541683E-01  0.76331973E-01 -0.69553149E-02 -0.10722161E-02
 -0.23844002E-02 -0.24587917E-03  0.73374867E-01  0.11703366E+00
  0.75943530E-01 -0.60151588E-01  0.15490431E+00  0.13585862E-01
 -0.18192250E-01  0.11195568E-01  0.70080836E-02 -0.29040044E-01
  0.32617461E-01 -0.60124032E-01 -0.11059098E+00 -0.43481726E-01
  0.27728146E-01  0.21420592E-01 -0.26929742E-01  0.35609297E-01
 -0.37986711E-01  0.21261556E+00  0.65299809E-01 -0.47157770E+00
  0.18923239E+00  0.89936629E-02  0.30793028E-02  0.21662015E-01
  0.45056511E-01 -0.18105257E+00  0.52625746E-01 -0.21388228E+00
 -0.12751257E+00 -0.44269648E+00 -0.68748951E-01  0.48228782E-01
  0.46695489E-01 -0.61157335E-01 -0.31314623E+00 -0.65667808E+00
 -0.16174650E+00  0.18607914E+00 -0.82700670E+00 -0.49523894E-01
  0.11539984E+00 -0.11283566E+00 -0.42533651E-02  0.31864041E+00
  0.13107453E+00  0.33589387E+00  0.72368962E+00  0.48834570E-01
 -0.47290842E-02 -0.90480983E-01  0.11117184E+00 -0.19858021E+00
  0.16404297E-01 -0.35947224E+00 -0.23393698E+00  0.24125104E+00
 -0.40167993E+00 -0.59507191E-01 -0.12976586E-01  0.16296891E-02
 -0.64027667E-01  0.21480627E+00 -0.16956282E+00  0.42124185E+00
  0.31029803E+00  0.24321970E+00  0.14924949E+00 -0.11708121E+00
 -0.62503338E-01  0.91057897E-01  0.29138744E+00  0.99653769E+00
  0.11597234E+00 -0.23700123E+00  0.11012861E+01  0.13280974E+00
 -0.17497236E+00  0.16628049E+00 -0.11821240E-01 -0.40243316E+00
 -0.14012007E+00 -0.34927449E+00 -0.10288906E+01 -0.43111134E-01
 -0.44211321E-01  0.12559944E+00 -0.10422826E+00  0.19184583E+00
 -0.12884370E-01 -0.28929864E-02  0.62589156E-02 -0.43417551E-02
  0.16956746E-02  0.30290779E-01 -0.54206152E-01  0.47972496E-02
 -0.54383767E-02 -0.18483960E-02 -0.49267076E-02 -0.35054756E-02
 -0.10494788E-02 -0.31706644E-03  0.53946707E-01  0.46015929E-01
  0.77006114E-02 -0.74489890E-02  0.28184280E-01  0.48737310E-01
  0.56083123E-02 -0.11658833E-01  0.10535412E-01 -0.77447712E-01
  0.14809873E-01 -0.54364097E-02  0.26957260E-02  0.12003126E-01
 -0.48028259E-03 -0.13672523E-01 -0.10574404E-01 -0.94266161E-02
 -0.67775021E-02 -0.85156560E-01  0.66752793E-04  0.83940960E-02
  0.25840158E-01 -0.82805574E-01  0.31506184E-01  0.41513223E-01
 -0.28803999E-01 -0.18279600E+00 -0.70030391E-01  0.43120943E-02
 -0.44541992E-03 -0.10199835E-01 -0.34188926E-01 -0.19336941E-01
  0.11237562E-01 -0.19958831E-01  0.87408066E-01 -0.20651507E+00
 -0.62467046E-02  0.28983789E-01 -0.82333684E-02 -0.15517811E-01
  0.84783211E-02  0.52443543E-03  0.13247509E-02  0.27244105E-02
  0.20155314E-03  0.27045678E-01  0.32722114E-02 -0.98290928E-02
  0.24848564E-02 -0.12258628E-01  0.43838951E-02  0.21730985E-02
  0.14691027E-03  0.10895628E-01 -0.70574176E-02  0.27331525E-01
  0.34686185E-01  0.11546563E-01 -0.10812424E-01 -0.11996834E-01
 -0.61492622E-02 -0.16286846E-01  0.90343282E-02 -0.16508182E-02
 -0.44392467E-01  0.24883408E-01 -0.41023172E-01  0.30125698E-01
  0.19361742E-01 -0.84361620E-02 -0.86162388E-02 -0.12216836E-01
  0.51103357E-01 -0.75027507E-04  0.11774481E-01 -0.37965029E-02
  0.73318444E-02 -0.37572163E-02 -0.29526060E-02  0.51077679E-02
 -0.20714712E-02 -0.67285742E-02  0.69300090E-02  0.76303929E-02
  0.18072840E-01 -0.92502236E-02 -0.23002876E-02 -0.76491982E-02
  0.66094734E-02  0.57324432E-02 -0.36398082E-02  0.18937784E-02
  0.12494958E-03  0.95274895E-02  0.79445876E-02  0.87751150E-02
 -0.22462979E-02  0.10836435E-02  0.13684510E-02 -0.88894577E-03
  0.21372179E-02 -0.11187471E-02 -0.17962215E-02 -0.84776208E-02
 -0.32081937E-02 -0.57096705E-02  0.51954128E-02  0.20163734E-02
 -0.19013527E-02  0.13429526E-02
