  0.47669554E+01 -0.72017550E-01  0.13942049E+00  0.19542379E-01
 -0.16752632E-01 -0.16510993E-01 -0.43158536E-03  0.28941507E-01
 -0.32931969E-01  0.10719541E-02  0.56658983E-02  0.12240365E-01
 -0.93685761E-02 -0.99394906E+00 -0.35927993E+00  0.43325573E+00
 -0.22593533E+00  0.49836484E+00 -0.91735363E-01  0.10013926E+00
 -0.16090272E+00 -0.16553175E+00 -0.32432500E-01 -0.38297892E-01
 -0.82239389E-01 -0.42720847E-02  0.12144961E+02  0.79801214E+00
 -0.25601578E+01 -0.68445563E-01  0.18775874E+00  0.16825239E+00
  0.18251760E+00 -0.42203116E+00  0.31813502E-01  0.75639367E-01
 -0.42337400E+00 -0.16204226E+00  0.93350351E-01  0.12359418E+02
  0.26116190E+01 -0.71795493E+00  0.47592411E+01 -0.74272785E+01
  0.17137470E+01 -0.29525976E+01  0.15546530E+01  0.12446738E+01
  0.55519021E+00 -0.42093498E+00  0.19277962E+01  0.44809121E+00
 -0.81837509E+02 -0.65713773E+01  0.11112719E+02  0.46813387E+00
 -0.61830649E+01 -0.12024460E+01 -0.17724159E+01  0.16484221E+01
  0.20026150E+01 -0.97772121E-01  0.29807787E+01  0.10582247E+01
 -0.70731819E+00 -0.72209392E+01 -0.77260122E+01 -0.15136259E+02
 -0.22104202E+02  0.39128784E+02 -0.83586159E+01  0.14526751E+02
 -0.68457279E+01 -0.29666452E+01 -0.23397074E+01  0.42374210E+01
 -0.12021458E+02 -0.40962782E+01  0.19595663E+03  0.24501345E+02
 -0.20282059E+02 -0.20203457E+01  0.23160065E+02  0.31945639E+01
  0.48780823E+01 -0.33812380E+01 -0.74402056E+01 -0.85799479E+00
 -0.81885338E+01 -0.29702864E+01  0.22015817E+01 -0.64242859E+02
  0.68489776E+01  0.53867447E+02  0.37935577E+02 -0.88741394E+02
  0.16450562E+02 -0.26521561E+02  0.13563215E+02  0.29131477E+01
  0.35748589E+01 -0.11355736E+02  0.28946182E+02  0.11574269E+02
 -0.21447914E+03 -0.34901215E+02  0.17094316E+02  0.27981234E+01
 -0.29804564E+02 -0.32461698E+01 -0.52834854E+01  0.37156496E+01
  0.90832844E+01  0.20808840E+01  0.93321514E+01  0.36256208E+01
 -0.27270095E+01  0.11643465E+03  0.41456490E+01 -0.62626999E+02
 -0.26506945E+02  0.89930573E+02 -0.14143733E+02  0.20422010E+02
 -0.11808815E+02 -0.10933266E+01 -0.21905136E+01  0.12235157E+02
 -0.29777468E+02 -0.13072016E+02  0.86740608E+02  0.16090622E+02
 -0.54182301E+01 -0.11867723E+01  0.12633714E+02  0.11003160E+01
  0.20218923E+01 -0.16267681E+01 -0.36661091E+01 -0.12221851E+01
 -0.37074430E+01 -0.15805082E+01  0.11606570E+01 -0.55534851E+02
 -0.55097971E+01  0.24141418E+02  0.61227903E+01 -0.33446136E+02
  0.44106121E+01 -0.55466537E+01  0.36874857E+01  0.85909307E-01
  0.44831967E+00 -0.46812611E+01  0.11031492E+02  0.51603775E+01
 -0.17869548E+00  0.13910969E+01  0.19192036E+01  0.11573005E-01
 -0.15976202E+00 -0.94560012E-02  0.15693951E-01  0.52722119E-01
 -0.85014366E-02 -0.97233392E-02  0.14873112E-02 -0.89176511E-03
  0.52959174E-02  0.14833480E+00 -0.18277856E+01  0.14350958E+01
  0.30985162E-01  0.15200675E+00  0.21492893E-01 -0.96385032E-02
 -0.21557525E-01  0.68189323E-01  0.68523246E-03 -0.16917476E-02
 -0.20286473E-01  0.11845787E-01 -0.40418348E+00  0.81630504E+00
 -0.15781784E+01  0.64889038E+00 -0.37128395E+00  0.77008128E-01
  0.69604278E-01 -0.34735999E+00  0.32418561E+00  0.33138841E-01
  0.30220789E+00 -0.44437163E-01  0.15520662E+00 -0.41341978E+00
  0.15498551E+01 -0.13387531E+00  0.92664850E+00 -0.41743796E-01
  0.40571007E+00 -0.87894261E-01 -0.86675465E-01  0.41113240E+00
  0.72546661E-01  0.17126942E+00  0.89121640E-01  0.15699172E+00
  0.41381025E+01  0.69626174E+01  0.53660231E+01  0.43502373E+00
  0.14352139E+01  0.10049858E+01 -0.11870518E+01 -0.10593939E+01
  0.46142331E+00  0.64426959E-01  0.14919204E+00  0.15421329E+00
 -0.24009843E+00 -0.21884575E+01 -0.73620186E+01  0.25206366E+01
  0.66348314E-01 -0.16518011E+01 -0.94297123E+00  0.68582207E+00
  0.67841351E-01 -0.10439434E+01  0.77655673E-01  0.36230335E+00
  0.63397580E+00 -0.54638171E+00  0.53683529E+01 -0.93815594E+01
  0.17646761E+02 -0.46907473E+01  0.32573049E+01  0.13132709E+00
 -0.36337688E+01  0.69651103E+01 -0.32140779E+01  0.10166426E+01
 -0.68326783E+01 -0.89097261E+00 -0.18256758E+01  0.64158630E+01
 -0.17649351E+02  0.56288085E+01 -0.14704762E+02 -0.18327428E+01
 -0.44618931E+01  0.16981554E+01  0.28276651E+01 -0.73030219E+01
 -0.36753397E+01 -0.28609180E+01 -0.84641016E+00 -0.27507973E+01
 -0.22282150E+02 -0.46678986E+02 -0.15916712E+02  0.96986282E+00
 -0.12215257E+02 -0.11022175E+02  0.93760414E+01  0.61606741E+01
 -0.46595773E+00 -0.15873917E+01 -0.12295980E+01 -0.86355758E+00
  0.31697855E+01  0.11682695E+02  0.20335403E+02 -0.30051081E+01
 -0.24479065E+01  0.95660801E+01  0.90430307E+01 -0.53547621E+01
 -0.27718668E+01  0.75180225E+01  0.14638615E+00 -0.37047279E+01
 -0.48737936E+01  0.41345997E+01 -0.28579910E+02  0.87348892E+02
 -0.86842346E+02  0.14033395E+02 -0.40439684E-01  0.79252595E+00
  0.26493774E+02 -0.41706635E+02  0.64251790E+01 -0.86240768E+01
  0.41827087E+02  0.86550617E+01  0.81083364E+01 -0.62369038E+02
  0.10966637E+03  0.57230363E+01  0.72633629E+02  0.11584758E+02
  0.18804474E+02 -0.13280591E+02 -0.17550064E+02  0.34799728E+02
  0.25178940E+02  0.15181873E+02  0.13891363E+01  0.13887789E+02
  0.38604599E+02  0.10207993E+03 -0.29230881E+02 -0.10485904E+02
  0.40149216E+02  0.39026352E+02 -0.27193357E+02 -0.14548295E+02
 -0.53476844E+01  0.69869070E+01  0.42715588E+01  0.28882401E+01
 -0.10630175E+02 -0.17743685E+02  0.38365265E+02 -0.44383972E+02
  0.14417901E+02 -0.26099289E+02 -0.29533567E+02  0.11660139E+02
  0.13445919E+02 -0.22865906E+02 -0.37443502E+01  0.11432396E+02
  0.13121327E+02 -0.13328954E+02  0.83295593E+02 -0.27551196E+03
  0.20297762E+03 -0.27005568E+02 -0.36729797E+02 -0.95780048E+01
 -0.72624344E+02  0.10681413E+03  0.42937279E+01  0.23383392E+02
 -0.10540525E+03 -0.25344908E+02 -0.16387968E+02  0.19820599E+03
 -0.31570508E+03 -0.72060883E+02 -0.15624390E+03 -0.26451447E+02
 -0.37654530E+02  0.41089279E+02  0.39953003E+02 -0.67739883E+02
 -0.63928478E+02 -0.35235271E+02  0.25527906E+01 -0.27388000E+02
 -0.16694489E+02 -0.10372480E+03  0.99343521E+02  0.17906616E+02
 -0.54899918E+02 -0.54147350E+02  0.33478867E+02  0.15286818E+02
  0.11120188E+02 -0.10826113E+02 -0.68150554E+01 -0.49306641E+01
  0.13716016E+02  0.77929759E+01 -0.13942567E+03  0.99441040E+02
 -0.28234493E+02  0.29203566E+02  0.39281448E+02 -0.71675429E+01
 -0.22050735E+02  0.30663437E+02  0.86184502E+01 -0.13269633E+02
 -0.14924606E+02  0.19169950E+02 -0.11517070E+03  0.34904077E+03
 -0.23037418E+03  0.29416445E+02  0.71594467E+02  0.19957897E+02
  0.86077240E+02 -0.12215866E+03 -0.19588717E+02 -0.26783234E+02
  0.11752484E+03  0.30323792E+02  0.14876016E+02 -0.23966220E+03
  0.41143332E+03  0.11223404E+03  0.15691782E+03  0.27349731E+02
  0.35871044E+02 -0.54274963E+02 -0.36422302E+02  0.56854431E+02
  0.68983749E+02  0.36825104E+02 -0.73194647E+01  0.21632601E+02
 -0.64012690E+01  0.41037807E+02 -0.62049179E+02 -0.87074289E+01
  0.26557781E+02  0.25656235E+02 -0.14669993E+02 -0.59758472E+01
 -0.57773542E+01  0.55395346E+01  0.37282648E+01  0.29195373E+01
 -0.61014233E+01  0.11938372E+01  0.93779282E+02 -0.58239258E+02
  0.16913054E+02 -0.99648829E+01 -0.18439863E+02  0.14224560E-02
  0.11951702E+02 -0.14707021E+02 -0.52538476E+01  0.50785518E+01
  0.62320623E+01 -0.98415775E+01  0.59114883E+02 -0.15509395E+03
  0.99913818E+02 -0.13110652E+02 -0.38926407E+02 -0.11956065E+02
 -0.37092175E+02  0.51071320E+02  0.12083856E+02  0.11144696E+02
 -0.47916153E+02 -0.12860418E+02 -0.49043159E+01  0.97261871E+02
 -0.19500644E+03 -0.51127701E+02 -0.60541306E+02 -0.11995492E+02
 -0.12932007E+02  0.25311079E+02  0.10825487E+02 -0.16840389E+02
 -0.26814425E+02 -0.14202530E+02  0.40943546E+01 -0.52332830E+01
  0.59779100E-01  0.60269129E-01  0.43412186E-02 -0.86104786E+00
 -0.28442454E+00  0.38802590E-01 -0.24069674E-01  0.61457339E-02
  0.26447730E-01 -0.10484729E-01 -0.16964693E-01 -0.17687948E-01
  0.11072900E-01  0.88018358E-01 -0.24598602E-01 -0.90877019E-03
  0.27645338E+00 -0.60979283E+00 -0.11868041E-01 -0.52261841E-02
 -0.38976759E-01  0.42610685E-03  0.50539714E-02 -0.27756458E-02
 -0.37858903E-02  0.15917744E-01  0.24479557E-01  0.64580876E+00
  0.88117719E-01 -0.19167216E+00 -0.63693744E+00  0.20008092E+00
  0.13274205E+00  0.14893281E+00  0.11748410E+00  0.23986910E+00
 -0.11419380E+00  0.55741392E-01  0.13194549E+00  0.31363297E+00
  0.28544968E+00  0.47836199E+00  0.13769217E+01 -0.44855452E+00
  0.14112353E+00  0.25663990E+00  0.10438133E+00 -0.10474421E+00
  0.16550191E-01 -0.23519805E-01  0.12023653E+00  0.87688923E-01
  0.15380677E+01  0.14324549E+01  0.13127995E+01  0.88563509E+01
  0.12689074E+01 -0.85907185E+00 -0.37547376E-01 -0.15601891E+00
  0.33903081E-01  0.14706784E+00  0.37223575E+00  0.14558417E+00
 -0.20162196E+00  0.20672157E+01  0.85868543E+00  0.20100527E+01
 -0.15593596E+01  0.54521675E+01  0.74721974E+00  0.24748006E+00
  0.22941184E+00  0.41224471E+00  0.10947401E+00  0.19377369E+00
  0.53652614E-01 -0.26892835E+00 -0.85527778E+00 -0.59873805E+01
  0.82442206E+00  0.72160802E+01 -0.55486888E+00 -0.11447297E+01
 -0.21035652E+01 -0.41455355E+00 -0.13146847E+01 -0.19809874E+01
  0.17242728E+01 -0.57977825E+00 -0.89161658E+00 -0.37543097E+01
 -0.52248592E+01 -0.48182116E+01 -0.46627331E+01  0.96200695E+01
  0.14079694E+01 -0.24980743E+01 -0.34461051E+00  0.31529838E+00
 -0.14311075E+01  0.84543669E+00 -0.79500061E+00  0.87758183E-01
 -0.14999283E+02 -0.91342783E+01 -0.57922730E+01 -0.19058975E+02
  0.25543195E+00  0.45159874E+01  0.29069428E+01  0.59061384E+00
 -0.35207069E+00 -0.85799426E+00 -0.22677574E+01 -0.35971808E+00
  0.99695718E+00 -0.13004525E+02 -0.14058589E+01 -0.92240839E+01
  0.49196196E+01 -0.47094269E+01 -0.47235041E+01 -0.11311455E+01
 -0.21206169E+01 -0.10868502E+01 -0.12165098E+01 -0.93641442E+00
 -0.54299790E-01  0.10610466E+01  0.39302891E+00  0.14020730E+02
 -0.63046675E+01 -0.23180605E+02  0.46417074E+01  0.19860535E+01
  0.61314020E+01  0.10478191E+01  0.39981804E+01  0.44316483E+01
 -0.51703072E+01  0.15147122E+01  0.18553237E+01  0.10761917E+02
  0.15200617E+02  0.10380514E+02  0.55815134E+01 -0.28787249E+02
 -0.61082206E+01  0.76987014E+01  0.63724285E+00 -0.10391540E+00
  0.52535138E+01 -0.30186062E+01  0.21368237E+01 -0.69694430E+00
  0.33612610E+02  0.17597857E+02  0.12092535E+02  0.56274945E+00
 -0.44205179E+01 -0.89462976E+01 -0.83171120E+01 -0.39125001E+00
  0.78949368E+00  0.13598927E+01  0.44765348E+01  0.34951833E+00
 -0.16460218E+01  0.24521835E+02 -0.49467859E+01  0.14729335E+02
 -0.94777222E+01 -0.24623810E+02  0.99676733E+01  0.11067476E+01
  0.53398237E+01  0.20645840E+00  0.34774733E+01  0.12603254E+01
 -0.11288595E+00 -0.20366173E+01  0.48746824E+00 -0.93833923E+01
  0.79512815E+01  0.16153669E+02 -0.65026073E+01 -0.10142498E+01
 -0.47579021E+01 -0.93598437E+00 -0.33259742E+01 -0.30019798E+01
  0.39455862E+01 -0.10857134E+01 -0.10412169E+01 -0.85157795E+01
 -0.12449423E+02 -0.60487137E+01  0.28868359E+00  0.19360550E+02
  0.52751713E+01 -0.72028527E+01 -0.67789555E+00 -0.26337576E+00
 -0.44146748E+01  0.24460630E+01 -0.18024997E+01  0.45497316E+00
 -0.22045059E+02 -0.11040361E+02 -0.89635515E+01  0.14214536E+02
  0.54145703E+01  0.58426008E+01  0.63665800E+01 -0.24814358E+00
 -0.69569629E+00 -0.63997215E+00 -0.28150804E+01  0.38981915E-01
  0.74708533E+00 -0.14405211E+02  0.67465458E+01 -0.91972790E+01
  0.44302187E+01  0.29674314E+02 -0.69829130E+01  0.78397954E+00
 -0.36686268E+01  0.63624251E+00 -0.25999174E+01 -0.36813945E+00
  0.81634104E-01  0.15097923E+01  0.19783933E-01  0.11059834E+00
 -0.11023654E+00 -0.75270355E-01  0.54907441E-01 -0.38886005E+00
 -0.41173497E+00 -0.22116264E-01  0.64385355E-01  0.88824853E-02
 -0.96755140E-02 -0.36646105E-01 -0.59598195E-02  0.64539433E-01
 -0.11785929E+00 -0.12389940E+00 -0.48941523E-01 -0.10718918E+00
  0.40435499E+00 -0.40478411E+00 -0.61611693E-01  0.38958152E-03
  0.99619920E-03 -0.42985827E-02  0.18320027E-02  0.19367576E-01
 -0.32544464E+00  0.51384830E+00 -0.25873077E+00 -0.29849017E+00
 -0.10000074E+00 -0.15430472E-01  0.58037206E-03  0.10718274E+00
 -0.16415427E-01 -0.15686333E-01  0.29702727E-01 -0.29885124E-01
 -0.15864320E-01 -0.14868063E+00 -0.11868398E+00 -0.14044303E+00
 -0.17538846E+00 -0.13476026E+00  0.57173111E-01  0.18623368E+00
 -0.32387108E-01 -0.34499161E-01 -0.32388661E-01 -0.80245793E-01
  0.56267917E-01  0.15138484E-01 -0.47861069E-01 -0.77162349E+00
  0.16360244E+01  0.50554228E+00 -0.63924372E-01 -0.10863322E+00
 -0.60092205E+00  0.49819637E-01 -0.82271285E-02  0.98940365E-01
 -0.35185188E-01  0.12983483E+00 -0.19542506E+00 -0.76338345E+00
  0.19630163E+01 -0.10691434E+00 -0.60503505E-01  0.13289423E+01
  0.43475190E+00  0.11329931E+00 -0.10821793E-01 -0.62644839E-01
  0.12987886E+00  0.13167375E+00  0.77864647E-01 -0.24797526E+00
  0.24173477E+00 -0.10378170E+01  0.63027930E+00  0.74880981E+00
  0.33605361E+00  0.35392141E+00  0.33974940E+00 -0.25777459E+00
  0.61715255E-03  0.44684768E-01 -0.11695756E+00  0.11965482E+00
  0.14105978E-01 -0.24457286E+00  0.41991290E+00  0.31134152E+00
  0.22164924E+00  0.72564882E+00 -0.43179059E+00 -0.61885379E-01
  0.49443059E-01  0.54404359E-01  0.31738911E-01  0.19574244E+00
  0.27847872E-02 -0.16355213E-01  0.63239706E+00  0.16469688E+01
 -0.27302732E+01 -0.85581720E+00  0.37954581E+00  0.11399050E+01
  0.17348309E+01  0.94211519E-01 -0.21935873E+00 -0.23572174E+00
  0.16577184E+00 -0.19861726E+00  0.35016692E+00  0.68477434E+00
 -0.23878088E+01  0.44941813E+00 -0.84276378E-01 -0.20325935E+01
 -0.13022908E+01  0.10930405E+01  0.38093251E+00  0.19024204E+00
 -0.33430809E+00 -0.23511818E+00 -0.28587627E+00  0.32850736E+00
  0.67689955E-01 -0.20780522E-01 -0.29032284E-01 -0.13323180E-01
  0.28254267E-01  0.84414110E-02 -0.15326820E-01  0.25174028E+00
 -0.40093143E-01  0.27145152E-02 -0.66505708E-02 -0.13159066E-01
 -0.18460389E-01  0.69634914E-01 -0.45518775E-01  0.13114979E-03
 -0.10398069E-01 -0.32790069E-01 -0.10675941E-01 -0.56565069E-02
  0.37150964E-01  0.23021939E+00  0.76370062E-02 -0.43002553E-02
  0.90373270E-02 -0.44722818E-02 -0.81032962E-02 -0.43692399E-01
 -0.10039860E-01  0.17762598E-01 -0.13719068E+00 -0.41710932E-01
  0.31929690E-01  0.24983568E+00  0.21474643E+00 -0.19966746E-02
  0.15482435E-02 -0.80155052E-03  0.30076521E-01  0.23039337E+00
  0.19240946E+00 -0.78822196E-01 -0.48037753E-01  0.23808508E+00
 -0.85829981E-02 -0.15761971E-01 -0.27143878E+00  0.14898765E+00
  0.10034035E-01 -0.17262490E-01  0.28459651E-02 -0.29851828E-01
 -0.92098355E-01 -0.30134434E-01 -0.82727498E-03 -0.17205035E-01
 -0.25473502E-01  0.82982332E-02 -0.11164434E-01  0.28170861E-01
 -0.21050286E-01  0.71516871E-01  0.11752142E+00 -0.58911443E-02
 -0.18760281E-01  0.83058663E-02  0.17495194E-01 -0.28589493E-01
  0.34168433E-01 -0.72476625E-01 -0.29382722E-02  0.76811682E-02
  0.45096450E-01  0.30133617E-02 -0.14231348E+00  0.89629531E-01
  0.86848512E-02 -0.99676475E-02 -0.47373828E-01 -0.30634219E-01
  0.16800816E-02  0.18063534E-01 -0.41148607E-01  0.12769083E-01
 -0.67251879E-02  0.29845890E-01  0.57053417E-02 -0.11818509E-02
 -0.55645369E-02 -0.10559255E+00  0.37416607E-01  0.55516444E-01
  0.15834853E-01  0.20975685E-01  0.30448467E-01  0.37793186E-01
  0.77342093E-02 -0.49891472E-02 -0.35565118E-02 -0.14904853E-01
 -0.27537173E-01 -0.54248422E-02 -0.32515921E-01 -0.11524391E+00
 -0.27006499E-01 -0.25322476E-01  0.14191590E-01  0.12788467E-01
  0.57791099E-02 -0.54317177E-03 -0.15069270E-02  0.22591203E-01
 -0.38332655E-02 -0.25445294E-01  0.13055148E-01  0.71395226E-02
  0.97428225E-02  0.17405972E-01 -0.11919926E-01 -0.45696460E-02
 -0.54349601E-02 -0.26084450E-02 -0.11787944E-01 -0.67170407E-02
 -0.12048979E-01  0.12912757E-01 -0.51113814E-02  0.12004344E-02
  0.12741836E-01  0.13009418E-01  0.38855118E-02  0.78748107E-01
 -0.10889453E+00 -0.12783661E-01 -0.66305064E-02 -0.20848874E-01
  0.30470366E-01 -0.30254409E-01 -0.69153421E-02 -0.26659120E-01
  0.13413354E-01  0.29060598E-02 -0.56839692E-02 -0.37495904E-01
  0.66720471E-02 -0.68216692E-02  0.11667378E-01  0.37586469E-01
  0.30343611E-01 -0.39814599E-02 -0.21826498E-01  0.24977464E-01
  0.14075890E-01 -0.11293184E-01 -0.50641857E-02  0.14215916E-01
  0.80071468E+01  0.23540013E-01  0.14707810E+00  0.61012924E-01
 -0.19648800E-01 -0.79102479E-02 -0.12570567E-01  0.60085010E-01
 -0.31929113E-01  0.15448346E-01 -0.50893165E-02  0.16869308E-01
 -0.57898681E-02 -0.21232369E+01 -0.46706444E+00 -0.10000436E+00
 -0.10564296E+00  0.28760386E+00  0.85470974E-01  0.23103154E+00
  0.48029870E-02 -0.14235693E+00  0.14473069E+00  0.36030024E-01
 -0.35992347E-01 -0.17253455E-01  0.16923170E+02  0.12374105E+01
 -0.25139482E+01  0.29843819E+00  0.55985516E+00  0.69062686E+00
  0.48571929E+00 -0.87643987E+00  0.75207931E+00  0.19640109E-01
 -0.28679377E+00 -0.58915949E+00 -0.28327841E+00  0.14983639E+02
  0.24837055E+01  0.10404690E+02  0.21364901E+01 -0.29136972E+01
 -0.39514863E+00 -0.35909801E+01  0.20056395E+00  0.15654202E+01
 -0.34472344E+01 -0.59020323E+00  0.87846285E+00  0.14721909E+01
 -0.94911163E+02 -0.13008686E+02  0.14315582E+02 -0.42997437E+01
 -0.10056246E+02 -0.40604210E+01 -0.27439718E+01  0.63601122E+01
 -0.44736729E+01 -0.78184110E+00  0.28047209E+01  0.52159152E+01
  0.21123676E+01  0.30943279E+01 -0.11885343E+02 -0.64855026E+02
 -0.10654854E+02  0.19201281E+02 -0.13944062E+01  0.16869156E+02
 -0.27809069E+01 -0.75264559E+01  0.20107191E+02  0.25993383E+01
 -0.68293738E+01 -0.10687794E+02  0.16992488E+03  0.46145279E+02
 -0.36491425E+02  0.13116934E+02  0.34286945E+02  0.78730631E+01
  0.54953222E+01 -0.18412992E+02  0.11174599E+02  0.26052153E+01
 -0.87555561E+01 -0.14695855E+02 -0.49863582E+01 -0.86712387E+02
  0.28112959E+02  0.14459599E+03  0.19851641E+02 -0.51848770E+02
  0.83207064E+01 -0.31751221E+02  0.81608305E+01  0.16190430E+02
 -0.46680206E+02 -0.44772253E+01  0.18257050E+02  0.26758469E+02
 -0.14461771E+03 -0.62235672E+02  0.42808395E+02 -0.15741500E+02
 -0.42179947E+02 -0.63173614E+01 -0.47827044E+01  0.21872602E+02
 -0.12338369E+02 -0.28421402E+01  0.10545931E+02  0.16512466E+02
  0.45623174E+01  0.12349963E+03 -0.25484192E+02 -0.13910371E+03
 -0.15541058E+02  0.57951981E+02 -0.11481495E+02  0.25678282E+02
 -0.90002031E+01 -0.15541975E+02  0.46808899E+02  0.34660118E+01
 -0.19979813E+02 -0.27687757E+02  0.49242920E+02  0.27691010E+02
 -0.18267746E+02  0.66256733E+01  0.17394238E+02  0.18268528E+01
  0.15869139E+01 -0.90256739E+01  0.49349022E+01  0.95967907E+00
 -0.43152208E+01 -0.64874325E+01 -0.13755007E+01 -0.52184998E+02
  0.73005280E+01  0.49102631E+02  0.43267603E+01 -0.22683683E+02
  0.48243713E+01 -0.74036078E+01  0.34105937E+01  0.54719052E+01
 -0.16946058E+02 -0.10452633E+01  0.77386174E+01  0.10162491E+02
 -0.28234261E+00  0.15047415E+01  0.16470917E+01 -0.48499368E-02
 -0.99328697E-01 -0.19733937E-01 -0.57898015E-02  0.54610927E-01
  0.14524219E-02  0.27774852E-02  0.19980098E-03  0.76767765E-02
 -0.83661638E-02  0.36049801E+00 -0.15487709E+01  0.14352397E+01
 -0.28597062E-01  0.10506238E+00 -0.50372839E-01 -0.33528510E-01
 -0.47886573E-01  0.57634912E-01 -0.36588252E-01  0.12803383E-01
 -0.29328018E-01  0.12255315E-01 -0.45544681E+00  0.12475319E+01
 -0.27271128E+01  0.53092772E+00 -0.37300751E-01 -0.15156126E+00
 -0.12215276E+00 -0.25236827E+00  0.13521498E+00  0.36329889E+00
  0.22915351E+00 -0.17122568E+00  0.20348291E+00  0.99758154E+00
  0.18983068E+01 -0.12141098E+00  0.98354705E-02  0.15336275E+00
  0.17870604E+00 -0.72830558E-01  0.17440286E+00  0.29191232E+00
 -0.11306346E-01  0.49621542E-02 -0.26877807E-01 -0.59098415E-02
  0.66613064E+01  0.10923632E+02 -0.65970409E+00  0.15522881E+01
 -0.40954612E-01  0.10254956E+01 -0.66243577E+00 -0.82247674E+00
  0.49483863E+00 -0.44243655E+00 -0.27341878E+00 -0.15122771E+00
 -0.44921716E-02 -0.38886521E+01  0.54575652E+00  0.10046308E+02
  0.23151207E+01 -0.10080290E+01  0.23143318E+00  0.23112383E+01
  0.82673115E+00 -0.13583059E+01  0.51237226E+00 -0.59203404E+00
  0.10641146E+01 -0.16020350E-01  0.38286209E+01 -0.29793093E+02
  0.47293579E+02 -0.99862347E+01 -0.12771472E+01  0.57090254E+01
  0.90686393E+00  0.46967688E+01 -0.48249453E+00 -0.78903112E+01
 -0.37669449E+01  0.33611765E+01 -0.28549347E+01 -0.42156820E+01
 -0.18497114E+02  0.43299971E+01  0.12616367E+01 -0.74922543E+01
  0.18494388E+01  0.33060455E+01 -0.33028388E+00 -0.44510727E+01
 -0.27160692E+00  0.20754676E+00  0.16191083E+00  0.37127811E+00
 -0.39047283E+02 -0.20917374E+02  0.41411636E+02 -0.88546057E+01
  0.36347628E+01 -0.46501169E+01  0.43165112E+01  0.63377647E+01
 -0.79014248E+00  0.20996790E+01  0.26977174E+01  0.49547371E-01
 -0.80331701E+00  0.24417513E+02 -0.50597046E+02 -0.12887446E+02
 -0.25855637E+02  0.15060377E+02  0.16648368E+01 -0.19734495E+02
 -0.85645733E+01  0.11742890E+02  0.24708918E+00  0.30122678E+01
 -0.88011360E+01 -0.45888130E-01 -0.12037979E+02  0.18195720E+03
 -0.30125439E+03  0.56718903E+02  0.25235319E+02 -0.37847775E+02
 -0.31361133E+00 -0.27802048E+02 -0.43944130E+01  0.44352985E+02
  0.19799465E+02 -0.20778854E+02  0.12326245E+02 -0.41416504E+02
  0.12508258E+03 -0.62992973E+01 -0.16054337E+02  0.42519867E+02
 -0.22424589E+02 -0.25135466E+02  0.28161287E+01  0.19682434E+02
  0.15035915E+01 -0.35815945E+01  0.37708406E+01 -0.11817551E+01
  0.89285217E+02 -0.69641006E+02 -0.17817471E+03  0.21492142E+02
 -0.17860394E+02  0.67075520E+01 -0.15617904E+02 -0.20148712E+02
 -0.40488234E+01 -0.17107675E+01 -0.83144178E+01  0.30443573E+01
  0.37432699E+01 -0.67462082E+02  0.21829536E+03 -0.10266725E+03
  0.90444672E+02 -0.59647964E+02 -0.10293539E+02  0.61297577E+02
  0.29657211E+02 -0.38800812E+02 -0.93168879E+01 -0.34729414E+01
  0.26925247E+02 -0.22017689E+01  0.41186661E+02 -0.43663577E+03
  0.76321771E+03 -0.13260320E+03 -0.96994415E+02  0.98809723E+02
 -0.51419196E+01  0.72419853E+02  0.21797651E+02 -0.10391359E+03
 -0.44690704E+02  0.50902676E+02 -0.22424055E+02  0.19840216E+03
 -0.35004053E+03 -0.27337151E+01  0.44635433E+02 -0.85559494E+02
  0.67447418E+02  0.67286041E+02 -0.17907364E+02 -0.35397385E+02
  0.19058683E+01  0.13237236E+02 -0.18305573E+02  0.25211602E+00
 -0.86747162E+02  0.17347542E+03  0.27344238E+03 -0.22800629E+02
  0.27914154E+02 -0.33933649E+01  0.26151579E+02  0.27388151E+02
  0.97586899E+01 -0.34674823E+01  0.91410255E+01 -0.73688040E+01
 -0.56035948E+01  0.89096451E+02 -0.34042065E+03  0.24030518E+03
 -0.12773232E+03  0.86151855E+02  0.17995501E+02 -0.78346130E+02
 -0.41468628E+02  0.53289474E+02  0.18957485E+02 -0.17327204E+01
 -0.35620255E+02  0.71820145E+01 -0.68477386E+02  0.45522485E+03
 -0.86998047E+03  0.13320493E+03  0.13828078E+03 -0.11296691E+03
  0.83289499E+01 -0.84006424E+02 -0.30078979E+02  0.10894444E+03
  0.46073669E+02 -0.53107391E+02  0.18520048E+02 -0.27914136E+03
  0.44985596E+03 -0.11727839E+01 -0.40542358E+02  0.65773636E+02
 -0.78929604E+02 -0.74833633E+02  0.33005199E+02  0.26883785E+02
 -0.96850271E+01 -0.17542389E+02  0.28257004E+02  0.11094313E+01
  0.28169250E+02 -0.94577866E+02 -0.13985548E+03  0.92719965E+01
 -0.13244053E+02  0.46153146E+00 -0.14713108E+02 -0.13108558E+02
 -0.55679369E+01  0.39470749E+01 -0.31173913E+01  0.46963749E+01
  0.28085089E+01 -0.41424835E+02  0.17922870E+03 -0.13824786E+03
  0.62719315E+02 -0.40361130E+02 -0.99571943E+01  0.35196609E+02
  0.20173752E+02 -0.25507154E+02 -0.10779361E+02  0.30331247E+01
  0.17037977E+02 -0.52984176E+01  0.38881653E+02 -0.17535538E+03
  0.36977023E+03 -0.48800980E+02 -0.67534851E+02  0.46994457E+02
 -0.36084452E+01  0.35268539E+02  0.12913198E+02 -0.42146164E+02
 -0.17815414E+02  0.19775284E+02 -0.58432074E+01  0.12580309E+03
 -0.21518388E+03  0.61443505E+01  0.98084259E+01 -0.15733668E+02
  0.32032806E+02  0.29372604E+02 -0.18224518E+02 -0.68510799E+01
  0.68954391E+01  0.76545310E+01 -0.14303967E+02 -0.45466861E+00
  0.14912950E+00 -0.37197623E-01  0.86089194E-01 -0.99689078E+00
  0.34358007E+00  0.41757077E-02  0.11042264E-01 -0.31665795E-01
  0.28434342E-01 -0.40736798E-01  0.25358042E-01 -0.47867005E-02
 -0.79530254E-02  0.48351955E-01 -0.13903272E+00  0.35033256E-01
 -0.24141116E+00 -0.73474467E+00 -0.21165458E-02  0.14233134E-01
 -0.48750002E-01 -0.17404558E-01 -0.13931587E-01  0.45621023E-02
 -0.16081573E-01  0.18449978E-02  0.15439528E+00  0.10494127E+01
  0.53804463E+00  0.16673174E+01 -0.14299717E+01  0.68726413E-01
 -0.16137254E+00  0.13222758E+00  0.19399196E-01 -0.11860881E-01
 -0.47297381E-01  0.52892003E-01  0.16677070E-01  0.36067051E+00
  0.11057930E+01  0.61169720E+00  0.19141264E+01  0.20964136E+01
  0.23646539E+00  0.27404869E+00  0.19712859E+00 -0.11474234E+00
  0.12215358E+00 -0.76190829E-01  0.15382157E+00  0.43123841E-01
  0.10588360E+01  0.11870985E+01  0.88391542E+00  0.23195534E+01
  0.29367788E+01  0.42034310E+00 -0.13270930E+01 -0.13814926E+00
  0.26789278E+00 -0.76729953E-01 -0.62709659E+00 -0.13922799E+00
 -0.22054446E+00  0.26687746E+01  0.14925652E+01 -0.10293322E+01
 -0.60973644E+01  0.13214233E-01 -0.80502629E-01 -0.20025110E+00
  0.51012868E+00  0.36622775E+00  0.50678080E+00 -0.61252302E+00
  0.36497283E+00  0.66087967E+00 -0.18513011E+01 -0.84644547E+01
 -0.22534676E+01  0.16729211E+01  0.59963427E+01  0.83362734E+00
 -0.32418752E+00 -0.12634010E+01 -0.21761374E+00 -0.32083213E+00
  0.10582199E+01 -0.40086411E-01  0.34409943E+00 -0.56983299E+01
 -0.85301571E+01 -0.62716274E+01 -0.10336223E+02 -0.12337219E+01
  0.14525557E+01 -0.27670050E+01 -0.61272615E+00  0.89260936E-02
 -0.17194242E+01  0.48456725E+00 -0.75325102E+00 -0.12380636E+00
 -0.10879603E+02  0.18890284E+00 -0.12624624E+02  0.85096445E+01
 -0.14647896E+02 -0.11804609E+01  0.11204756E+02  0.11301165E+01
 -0.65179712E+00  0.20850821E+01  0.33798697E+01  0.68264633E+00
  0.13606977E+01 -0.41109314E+01 -0.76429534E+01  0.31357613E+01
  0.33289856E+02  0.18736219E+02  0.52604097E+00  0.32423334E+01
 -0.39312522E+01 -0.42085308E+00 -0.20370188E+01  0.46622753E+01
 -0.20514877E+01 -0.67121158E+01  0.33330193E+01  0.19760468E+02
  0.13707294E+01 -0.15091407E+02 -0.44948025E+01 -0.37715893E+01
  0.19507856E+01  0.41595783E+01  0.84614331E+00  0.17263755E+01
 -0.36580293E+01 -0.27227205E+00 -0.15076884E+01  0.17205366E+02
  0.15522378E+02  0.18444883E+02  0.14610297E+02 -0.95373640E+01
 -0.77903042E+01  0.75731359E+01  0.10421705E+01  0.14117403E+01
  0.51428719E+01 -0.15598038E+01  0.11522198E+01  0.33083045E+00
  0.23841169E+02 -0.88205338E+01  0.33722397E+02 -0.35630081E+02
  0.22245089E+02  0.98581374E-01 -0.23630219E+02 -0.24590368E+01
 -0.60612363E+00 -0.56737957E+01 -0.57873230E+01 -0.94312793E+00
 -0.20955915E+01 -0.14294488E+02  0.16591461E+02 -0.36211157E+01
 -0.58140301E+02 -0.52787476E+02 -0.87697136E+00 -0.86255150E+01
  0.79262266E+01 -0.16103133E+01  0.19649647E+01 -0.10198184E+02
  0.28549719E+01  0.16818815E+02 -0.28521109E+01 -0.13874240E+02
  0.60465282E+00  0.88589296E+01 -0.56679926E+01  0.32743340E+01
 -0.16497430E+01 -0.34437387E+01 -0.67558539E+00 -0.17088107E+01
  0.29519806E+01  0.42225951E+00  0.13573284E+01 -0.15705804E+02
 -0.77159290E+01 -0.15102556E+02 -0.16817580E+01  0.56376777E+01
  0.67993746E+01 -0.60265527E+01 -0.10358449E+01 -0.14570483E+01
 -0.36746919E+01  0.12936858E+01 -0.37998497E+00 -0.32503825E+00
 -0.14731428E+02  0.91323881E+01 -0.23522764E+02  0.31281187E+02
 -0.66921172E+01  0.88023257E+00  0.14684580E+02  0.14542350E+01
  0.11787510E+01  0.40096455E+01  0.31103554E+01  0.42140287E+00
  0.75577307E+00  0.22154358E+02 -0.13379251E+02  0.43898407E+00
  0.28501005E+02  0.40360855E+02  0.30411851E+00  0.64322252E+01
 -0.44322767E+01  0.17975950E+01 -0.39312947E+00  0.68860779E+01
 -0.11438122E+01 -0.11947878E+02  0.27685111E-01 -0.40053256E-01
 -0.17839096E-01 -0.57812694E-01  0.70409179E-01 -0.50432479E+00
 -0.61618292E+00 -0.51988088E-01  0.36189247E-01 -0.57952989E-01
  0.35770401E-01 -0.30052310E-01 -0.15522748E-01 -0.99234730E-02
 -0.25411302E+00 -0.98816872E-01  0.27671959E-01 -0.90068400E-01
  0.64124870E+00 -0.49534282E+00 -0.23844033E-01  0.90174712E-02
  0.16274258E-01  0.13823565E-02 -0.16471017E-01  0.77255033E-02
 -0.29735398E+00  0.89244610E+00  0.47042768E-01 -0.19908188E+00
 -0.20957832E+00  0.48498315E+00  0.34726393E+00  0.14254753E+00
 -0.51067263E-01 -0.74147582E-01  0.43129999E-01 -0.94624721E-02
  0.69399774E-01 -0.27613026E+00  0.39687447E-01 -0.22952504E+00
 -0.17188592E+00 -0.37711376E+00 -0.37344021E+00  0.44496521E+00
  0.49825113E-01  0.50268639E-01  0.10268871E-01 -0.15096734E+00
 -0.18276259E-02  0.57382856E-01  0.55527079E+00  0.49626112E+00
  0.41093677E+00 -0.36513752E+00 -0.92810738E+00  0.45406207E+00
  0.39471567E+00 -0.30232596E+00  0.54300815E+00  0.59649146E+00
 -0.42978968E-01  0.16226172E+00 -0.37429813E-01 -0.20489936E+00
  0.37278993E+01 -0.70701134E+00 -0.19198208E+00  0.71857435E+00
 -0.99595571E+00  0.54645717E+00 -0.43600601E+00 -0.46274233E+00
  0.24707443E-02  0.20912142E+00  0.10534024E+00 -0.15043881E-01
 -0.54460275E+00 -0.15500154E+01  0.16229698E-01  0.42883772E+00
  0.12063432E+00 -0.49502440E-01 -0.30448538E+00 -0.20664474E+00
  0.19829328E+00  0.26275939E+00 -0.19895925E+00  0.21524692E+00
 -0.15297687E+00  0.29179329E+00  0.17002034E+00  0.72335619E+00
  0.31211472E+00  0.96879715E+00  0.17340130E+00  0.76188266E-01
 -0.18247446E+00 -0.35377108E-01 -0.23166699E-01  0.31477255E+00
  0.19326968E+00 -0.67122042E-01  0.96205831E-01  0.37230721E+00
 -0.99004126E+00  0.10045290E+01  0.21211245E+01 -0.90331674E-01
  0.57627045E-01  0.65079659E+00 -0.12693567E+01 -0.96175182E+00
  0.58023084E-01 -0.35038713E+00  0.14534503E+00 -0.79609752E-01
 -0.49538922E+01  0.14437779E+01  0.20078925E-01 -0.11813402E+01
  0.14132195E+01 -0.34010512E+00  0.10204926E+01  0.75110751E+00
 -0.16915600E+00 -0.33175176E+00 -0.33036435E+00 -0.20429280E-01
 -0.10897011E-01 -0.49416184E-01 -0.44178922E-01 -0.84936582E-02
  0.51277779E-01  0.19495713E-01 -0.32920949E-01  0.21518528E+00
 -0.17939478E+00 -0.32887351E-01  0.33539165E-01 -0.19388678E-01
 -0.20020412E-01  0.20877954E-01  0.27526096E-01 -0.37257951E-01
  0.32353073E-01 -0.61392698E-01  0.98865926E-02 -0.21773187E-01
  0.17957854E+00  0.23242454E+00  0.58700144E-02  0.39826781E-02
  0.25550252E-01  0.60049258E-03 -0.15558755E+00 -0.54346316E-01
 -0.56051027E-01  0.19358875E-01 -0.15182690E+00 -0.10598338E+00
  0.37775721E-01  0.16895784E+00  0.51459491E+00 -0.84568337E-02
 -0.67650616E-01  0.27996891E-02 -0.11083935E-01  0.30534738E+00
  0.23073225E+00 -0.16615909E+00 -0.73981106E-01  0.17580722E+00
 -0.86328864E-01 -0.72317012E-02 -0.50074291E+00 -0.23022939E-02
  0.22110448E-02 -0.61923105E-01 -0.39555937E-01  0.32912306E-01
 -0.12910461E+00 -0.22992328E-01 -0.24645030E-01 -0.16976856E-01
 -0.48633259E-01  0.24791235E-01 -0.44905990E-02  0.44549935E-01
 -0.13423372E-01  0.14574015E+00  0.18071000E+00  0.22294491E-02
 -0.21888549E-01  0.82140625E-01  0.60347043E-01 -0.69422066E-01
  0.34340001E-02 -0.79234779E-01 -0.41237101E-01 -0.28514843E-01
  0.24108849E-01  0.40748827E-01 -0.15513337E+00  0.15307409E+00
  0.99850409E-02 -0.27682118E-01  0.54472774E-01 -0.43857154E-01
 -0.53891957E-01 -0.13284812E-01  0.35775442E-01  0.40358417E-02
 -0.27592605E-01  0.31445235E-01  0.15491653E-01  0.28190133E-02
 -0.24603693E-01 -0.92626929E-01  0.67674041E-01  0.71794271E-01
  0.95135741E-01  0.50922334E-02 -0.13623562E-01  0.23757340E-01
 -0.47744401E-02  0.46965741E-02 -0.67392145E-02 -0.48691970E-02
 -0.11122855E-02 -0.13454690E-01 -0.77131741E-01 -0.98624110E-01
  0.48160713E-01  0.16543768E-01 -0.49138770E-01  0.17461598E-01
  0.26750354E-01  0.39088391E-02  0.55514909E-02  0.43032456E-01
  0.60738623E-02 -0.25063993E-02 -0.15855387E-01 -0.94612055E-02
 -0.41879321E-03  0.32233030E-01 -0.19281844E-01  0.20792220E-01
  0.94251186E-02 -0.47330946E-01  0.23148457E-01  0.49970336E-02
 -0.24953453E-01  0.21466168E-01 -0.37387639E-03  0.19118557E-01
  0.32155176E-02  0.16403267E-01  0.35219166E-01  0.13113920E+00
 -0.96734822E-01  0.13746212E-01 -0.28147858E-01  0.16202064E-01
  0.51043976E-01 -0.35983650E-02 -0.52156076E-02 -0.96815266E-02
 -0.55470653E-02 -0.20149490E-01 -0.10250241E-01 -0.27565161E-01
  0.56680124E-01 -0.28701192E-01 -0.58173500E-02  0.27876014E-01
  0.27989307E-01 -0.13116183E-01 -0.12744516E-01  0.25175970E-01
  0.43719970E-02  0.16126097E-02 -0.25717750E-01  0.10965120E-01
  0.30802851E+01 -0.46980418E-02  0.10328546E-01 -0.13646304E-02
 -0.13921593E-02  0.46656504E-02  0.75738011E-02 -0.13919174E-02
  0.18014410E-02 -0.73226565E+00  0.12279888E-01  0.34578346E-01
  0.33941451E-01  0.73212682E-03 -0.21163456E-01  0.32289592E-02
 -0.18333457E-01  0.91965459E-02  0.79729569E+00  0.13542823E+00
 -0.11436111E+00 -0.70079923E-01  0.79188868E-02 -0.77631474E-01
 -0.55221070E-01  0.45033403E-01 -0.30216958E-01  0.18268728E+01
 -0.31209856E+00 -0.70338607E-01 -0.13058031E+00  0.52127126E-02
  0.59936713E-01 -0.18583013E-01  0.56642335E-01  0.17623588E-02
 -0.78476065E+00 -0.25712866E+00  0.25612438E+00  0.15128809E+00
 -0.38681533E-01  0.24744213E+00  0.14993745E+00 -0.11375402E+00
  0.66822350E-01 -0.13493088E+01  0.30580217E+00  0.73491514E-01
  0.89370728E-01  0.54565589E-02 -0.46355233E-01  0.13624963E-01
 -0.36061008E-01 -0.18066939E-01 -0.12063472E+00  0.14794455E+00
 -0.10244070E+00 -0.80330491E-01  0.43026239E-01 -0.18751287E+00
 -0.10860288E+00  0.70955396E-01 -0.43552943E-01  0.86388141E-02
 -0.10469252E+00 -0.35336649E+00  0.68503246E-02 -0.22832710E-01
  0.74300240E-02 -0.25587231E-02  0.51693581E-02 -0.12979574E-03
  0.82351677E-02  0.37010679E+00 -0.82846224E-01 -0.23642723E-01
  0.21374702E-01  0.24881926E-02 -0.14439702E-01  0.34175655E-02
  0.15466104E-01 -0.13728088E+00 -0.90724170E-01 -0.25918818E+00
  0.55246763E-01  0.28049927E-01 -0.48293494E-01 -0.40341385E-01
  0.25727993E-01  0.12118478E-01  0.87273717E-01  0.31198275E+00
 -0.16230863E+00  0.16893692E-01  0.17322816E-02 -0.83513968E-02
  0.22217985E-01  0.15569706E-01  0.63724101E-01  0.55732690E-01
  0.28494716E+00  0.15282592E+01 -0.20563170E+00  0.30643355E-01
 -0.10549945E+00  0.10248965E+00  0.31379044E-01 -0.74367374E-02
 -0.61427230E+00 -0.15684910E+01  0.10502629E+00  0.25299487E+00
 -0.15594780E+00 -0.50039280E-01  0.76203006E-02 -0.49784355E-01
 -0.12944192E+00  0.15699538E+01  0.26262051E+00  0.62663382E+00
  0.22692803E-01 -0.51594198E+00  0.51364642E+00  0.29827582E-01
 -0.80818415E-01 -0.30650461E+00  0.24862222E+00 -0.59349155E+00
  0.11204491E+01 -0.97968996E-01  0.33110029E+00  0.38167052E-01
 -0.16308677E+00  0.54527004E-02 -0.50980151E+00 -0.47659844E+00
 -0.55125356E-02 -0.95217311E+00  0.47925776E+00 -0.42554028E-02
  0.30441791E+00 -0.30924678E+00 -0.12380421E+00 -0.70827246E-01
  0.20973928E+01  0.99478257E+00  0.27451342E+00 -0.55617458E+00
  0.29574651E+00  0.15973371E+00  0.80506027E-01  0.57603043E-01
  0.32256550E+00 -0.38655002E+01 -0.90660787E+00 -0.59841728E+00
 -0.50917405E+00  0.14092969E+01 -0.11617565E+01  0.28998095E+00
  0.36635257E-01  0.80191469E+00 -0.10721378E+01  0.55519497E+00
 -0.26079957E+01  0.24563980E+00 -0.10116768E+01 -0.10343832E+00
  0.17780776E+00 -0.81209362E-01  0.10334635E+01  0.69367838E+00
 -0.10222286E+00 -0.55200577E+00 -0.34082192E+00  0.15705701E-01
 -0.24950404E+00  0.24499445E+00  0.78426957E-01  0.83322465E-01
 -0.16341933E+01  0.60357797E+00 -0.35521412E+00  0.34881729E+00
 -0.18382023E+00 -0.85821629E-01 -0.79250157E-01  0.24138992E-02
 -0.23403051E+00  0.27014959E+01  0.11459875E+01 -0.33060223E+00
  0.46477214E+00 -0.97078699E+00  0.67035884E+00 -0.35578549E+00
  0.13218268E-01 -0.56398720E+00  0.62231594E+00  0.28681970E+00
  0.19950294E+01 -0.16715036E+00  0.70967090E+00  0.80056019E-01
 -0.58295805E-01  0.67210019E-01 -0.60891318E+00 -0.86633563E-02
 -0.13671836E-02 -0.19294510E-01 -0.29737538E-01 -0.15660119E+00
 -0.86754002E-02  0.21384902E-03  0.20422875E-02 -0.96033923E-02
  0.10736868E-02  0.13963472E-02  0.80128177E-03  0.16088323E+00
 -0.86053126E-02  0.60172728E-03 -0.22198915E-01 -0.37762453E-03
  0.10805880E-02  0.39740399E-01  0.17161985E+00  0.12527364E+00
  0.13852578E+00 -0.44440907E+00 -0.17778875E-01 -0.20324277E-01
  0.42344291E-01 -0.20028135E-01 -0.42737368E-01  0.44157285E-01
  0.24216687E-01  0.59995002E+00  0.19375706E+00  0.41468341E-01
 -0.40872436E-01 -0.31848896E-01 -0.14190457E-01 -0.27813461E-01
  0.34570388E-01  0.91654718E-01  0.33465788E-01 -0.93962312E-01
  0.60697459E-01 -0.45351591E-01 -0.58084023E-02  0.61074000E-01
 -0.37716967E+00 -0.15043245E+00 -0.14817756E+00  0.47543745E-01
 -0.86728215E-01  0.59861321E-01  0.14234369E+00  0.12710452E-01
  0.17827239E-01 -0.24680118E+00 -0.86096454E+00 -0.37145871E+00
 -0.49700657E+00  0.13920879E+01  0.93504965E-01  0.44289518E-01
 -0.18447290E+00  0.17054560E-01  0.70487487E+00 -0.10964638E-01
  0.19685280E+00 -0.18399009E+01 -0.80342031E+00 -0.18387800E+00
  0.39359801E-01  0.17004316E+00 -0.85180640E-01 -0.19522335E-01
 -0.21377651E+00 -0.14989559E+00 -0.97864687E-01  0.37941441E+00
 -0.63822150E-01  0.14001624E+00  0.39011659E-02 -0.85912704E-01
  0.60058129E+00  0.10312815E+00  0.23901562E+00 -0.29843277E+00
  0.10723196E-01 -0.10886109E+00 -0.15636367E+00 -0.39202113E-01
 -0.35129011E-01  0.25636184E+00  0.11735373E+01  0.45907420E+00
  0.33341324E+00 -0.12187767E+01 -0.59096038E-01 -0.59066504E-01
  0.20547856E+00  0.14204449E-01 -0.11265888E+01 -0.48129063E-01
 -0.23462927E+00  0.14852360E+01  0.70783454E+00  0.19520158E+00
  0.13287681E+00 -0.18437938E+00  0.19562475E+00 -0.32194812E-01
  0.65474990E-02  0.37131533E-02 -0.14261338E-01 -0.12782278E-02
  0.23382233E-01  0.15923720E-01  0.40608913E-04  0.66276087E-03
  0.31999871E-03 -0.42041156E-01 -0.23349874E-01  0.11027429E-01
 -0.22927443E-01 -0.20414444E-01  0.19795487E-01 -0.69397581E-02
  0.38036960E-02  0.65187097E-01  0.50789267E-01  0.12329996E-01
 -0.14014616E-01  0.19207695E-01  0.54233067E-01  0.19744501E-01
  0.45834291E-02  0.72671254E-02  0.29568108E-01 -0.95958523E-02
 -0.18973611E-01 -0.41401163E-02  0.17457612E-01 -0.15092638E-01
  0.75680844E-01 -0.13022616E-01  0.67013013E-02  0.77274954E-02
 -0.82368083E-01 -0.58961112E-01  0.20770151E-01 -0.13150994E-02
 -0.13049465E+00 -0.10597039E+00  0.16197849E-01  0.15678909E-01
 -0.72845101E-01  0.12490303E+00 -0.20829695E-02 -0.25820645E-01
  0.39102308E-01  0.10707958E+00 -0.13309465E+00  0.15458104E-01
  0.37044149E-02 -0.31673741E-01 -0.62940717E-02  0.84093548E-02
 -0.41974154E-02 -0.33746941E-02  0.80712140E-02 -0.77740918E-02
  0.31657401E-01  0.36994985E-02 -0.28113980E-01  0.10798969E-01
 -0.56396723E-02 -0.16900623E-02 -0.34986287E-02  0.40706284E-02
  0.11442028E-01 -0.97587295E-02  0.27690606E-01  0.79382300E-01
 -0.30479809E-01  0.32784846E-01 -0.26296774E-01 -0.10788016E-01
  0.10917042E-01  0.14642074E-01  0.22470191E-01  0.14176785E-01
  0.31412635E-01 -0.57086002E-01  0.26893875E-01  0.37701242E-01
 -0.21372926E-02 -0.14738973E-01  0.80593157E-03 -0.38642716E-01
  0.31024845E-01  0.50734030E-03 -0.64163841E-02 -0.12042396E-01
  0.22190327E-02 -0.28449390E-03  0.62294267E-02 -0.91660731E-02
  0.21545026E-02 -0.10553716E-02  0.14355371E-01  0.12396548E-01
 -0.10789398E-01 -0.44431686E-02 -0.94738081E-02  0.47621648E-02
  0.40972382E-02  0.32042821E-02 -0.99020661E-03  0.49181804E-02
  0.23562347E-02  0.40638894E-02  0.27082460E-02 -0.65866150E-02
  0.62013268E-02  0.16731292E-02  0.18732371E-02 -0.48593800E-02
  0.13873119E-01 -0.13107673E-02 -0.19071303E-01  0.38780412E-03
  0.61205029E-02 -0.50388803E-02  0.68964978E-03 -0.54935296E-02
  0.18295188E-02  0.27496719E+01 -0.11850115E-01  0.73418096E-02
  0.64126849E-02 -0.29800741E-02  0.10921638E-02  0.41902252E-02
  0.14759843E-02 -0.22041446E-02 -0.51172680E+00  0.35100680E-01
  0.40524267E-01  0.30474847E-01 -0.65487805E-02 -0.66860467E-02
 -0.82540847E-02 -0.16374506E-01  0.66717863E-02  0.10756884E+01
  0.95197678E-01 -0.99020541E-01 -0.55270933E-01  0.56841303E-01
 -0.30476358E-01 -0.44919346E-01  0.41535310E-01  0.14882591E-01
  0.96904373E+00 -0.45030373E+00 -0.81589937E-01 -0.10445018E+00
  0.13437196E-01 -0.15732039E-01  0.23781396E-01  0.42177215E-01
 -0.97438283E-02 -0.12668189E+01 -0.14799925E-01  0.23314632E+00
  0.87992251E-01 -0.20218952E+00  0.13027805E+00  0.13615835E+00
 -0.11343503E+00 -0.31153902E-01 -0.63311547E+00  0.41507855E+00
  0.64436316E-01  0.67502908E-01  0.85417591E-02  0.24351127E-01
 -0.25230845E-01 -0.23825040E-01  0.86125848E-03  0.16201258E+00
 -0.35472833E-01 -0.86220741E-01 -0.37761632E-01  0.15207744E+00
 -0.11216551E+00 -0.97735286E-01  0.73955774E-01  0.15572719E-01
  0.19004464E-01 -0.27081835E+00 -0.25790614E+00  0.95325932E-02
 -0.15033993E-01  0.27574445E-02 -0.25284474E-02  0.38412481E-02
  0.23758337E-02 -0.15574142E-01  0.28764451E+00 -0.24723633E+00
 -0.21190658E-01  0.19187480E-01 -0.14577296E-02 -0.13602386E-01
  0.47102794E-02  0.15887059E-01  0.15916565E-01 -0.13094134E-01
 -0.18341506E+00 -0.20860845E-01  0.39675791E-01 -0.68267514E-02
 -0.66249073E-01 -0.62741712E-02  0.41506059E-01  0.33226565E-01
  0.21242502E+00 -0.11735040E+00  0.20106250E-01  0.14337775E-01
  0.52691698E-02  0.18621633E-01 -0.20861311E-02  0.50332192E-01
 -0.32793224E+00  0.81487381E+00  0.84182167E+00 -0.12698559E+00
  0.33453379E-01 -0.25510749E-01  0.89533150E-01  0.24488732E-01
 -0.31261615E-01 -0.37190884E+00 -0.10941410E+01  0.68853670E+00
  0.24537718E+00 -0.12240304E+00 -0.18654227E-01  0.40675957E-01
 -0.11932014E+00 -0.14532743E+00  0.39973892E-01 -0.20130175E+00
  0.98582131E+00  0.46249533E+00 -0.45445198E+00  0.95881104E-01
  0.30371648E+00  0.18240003E+00 -0.36862892E+00  0.49964005E+00
 -0.55297488E+00  0.81649625E+00 -0.15544049E+00  0.17243408E+00
 -0.80211401E-01 -0.12309635E+00  0.14403760E+00 -0.36307231E+00
  0.92932731E+00 -0.43920508E+00  0.27505100E+00  0.24573040E+00
  0.31845253E-02  0.79882316E-01 -0.29909259E+00 -0.48250321E-01
  0.84246337E-01  0.15329828E+01  0.19085544E+00 -0.40697193E+00
 -0.55546296E+00  0.18732367E+00  0.17146083E-01  0.14358910E-01
  0.27570713E+00  0.33728591E+00 -0.16367954E+00  0.20679381E+00
 -0.20812733E+01 -0.13375100E+01  0.10512466E+01 -0.18085138E+00
 -0.35574481E+00 -0.50738007E+00  0.78306991E+00 -0.15351161E+01
  0.11400681E+01 -0.19037580E+01  0.40057015E+00 -0.52411419E+00
  0.25429851E+00  0.26375527E-01 -0.37648407E+00  0.65987456E+00
 -0.54566383E+00  0.74088335E-01 -0.10294523E+01 -0.16286097E+00
 -0.72648115E-01 -0.86193562E-01  0.27236110E+00  0.20283148E-01
 -0.70224531E-01 -0.12850332E+01  0.83220738E+00 -0.85517101E-01
  0.36889660E+00 -0.78059793E-01  0.37251141E-01 -0.59753973E-01
 -0.16131186E+00 -0.22452676E+00  0.14172667E+00  0.15790808E+00
  0.79502696E+00  0.10112371E+01 -0.61172265E+00  0.34335393E-01
  0.59816532E-01  0.33198726E+00 -0.48746252E+00  0.10491934E+01
 -0.24701853E+00  0.15002278E+01 -0.29250711E+00  0.31989694E+00
 -0.20179863E+00  0.11427307E+00  0.24893668E+00 -0.36306697E+00
 -0.13550291E-01 -0.45300759E-02  0.10528668E-02  0.16152509E-01
 -0.12370551E+00 -0.59309341E-02  0.40165861E-02  0.45750689E-03
 -0.59628938E-02 -0.12362759E-01 -0.79272054E-02  0.50656567E-02
  0.11978007E+00  0.42122323E-01  0.62554074E-03 -0.15799779E-01
 -0.46376400E-02  0.30326883E-02  0.40974233E-01  0.18386219E+00
  0.66352725E-01  0.13339929E+00 -0.20539431E+00  0.68436973E-02
  0.56280047E-02  0.26018701E-01 -0.77441488E-02  0.30746153E-01
  0.64624667E-01  0.41689612E-02  0.32169455E+00  0.19580454E+00
  0.16591448E-01 -0.15418101E-01 -0.22828069E-01  0.79204701E-02
 -0.79213560E-01  0.82305610E-01 -0.45376103E-01 -0.24927042E+00
  0.59723139E-01  0.52313942E-01 -0.31539883E-01 -0.39117865E-01
  0.51201832E-01 -0.16604351E+00 -0.34118190E-01 -0.95448852E-01
 -0.24441021E-01 -0.38288215E+00  0.89257881E-02  0.12591475E+00
  0.38770273E-01  0.11474445E-01 -0.95860362E-01 -0.84688097E+00
 -0.15334813E+00 -0.17581968E+00  0.49173307E+00 -0.18058453E-01
 -0.11134416E+00 -0.12453191E+00  0.18030409E-01  0.21763857E+00
 -0.97603619E-01  0.88954568E-01 -0.84687614E+00 -0.32350326E+00
  0.37710898E-01  0.73295422E-02  0.13443393E+00 -0.16885924E+00
  0.10223651E+00 -0.29878551E+00  0.48473828E-01  0.14142913E+00
 -0.96604228E-02 -0.75192213E-01  0.95178723E-01  0.81541292E-01
 -0.61776750E-01  0.29203844E+00 -0.17904034E+00  0.66509962E-01
 -0.33817425E-01  0.29854304E+00 -0.61735559E-01 -0.15191221E+00
 -0.53076677E-01 -0.26007967E-01 -0.22676745E-01  0.11153498E+01
  0.22664391E+00 -0.13381990E-01 -0.44242853E+00  0.69775105E-01
  0.11397253E+00  0.13336641E+00 -0.25085445E-01 -0.44642001E+00
  0.18625057E+00 -0.79894550E-02  0.63482380E+00  0.70025563E-01
 -0.66104054E-01  0.85890353E-01 -0.14158374E+00  0.24665558E+00
 -0.29041938E-01  0.10848622E-01  0.89042038E-02 -0.12965817E-01
 -0.79534091E-02  0.20859810E-01 -0.14016237E-01 -0.29190006E-02
 -0.91342581E-03 -0.55187498E-02 -0.40372211E-01 -0.21171888E-01
  0.10458578E-01 -0.23211658E-01  0.95567405E-02  0.19028159E-01
 -0.29276186E-02 -0.41621844E-02  0.39665487E-01  0.72864115E-01
  0.10825511E-01 -0.18992426E-01  0.10280471E-01  0.83170950E-01
  0.42992979E-02  0.93182246E-03  0.22329553E-02  0.22737483E-01
 -0.66707991E-02 -0.27572962E-02 -0.16470216E-01  0.29193014E-02
 -0.60508577E-02  0.88432133E-01 -0.63352734E-02  0.46102959E-02
  0.47638156E-02 -0.11769390E+00 -0.53772289E-01  0.17596761E-01
  0.23333792E-03 -0.14802746E+00 -0.58708403E-01  0.86851157E-02
  0.21828350E-01 -0.43172281E-01  0.11592649E+00 -0.16070418E-02
 -0.11035029E-01  0.17440667E-01  0.57708938E-01 -0.13491404E+00
 -0.18783394E-03  0.19392850E-01 -0.20160461E-01 -0.94742812E-02
  0.71759154E-02  0.22431758E-03 -0.19019585E-02  0.46471953E-02
 -0.72945277E-02  0.25696179E-01  0.10441859E-01 -0.15380017E-01
  0.67414865E-02 -0.12804105E-01  0.24585060E-02 -0.51557608E-02
  0.37254023E-02  0.76002479E-02 -0.13046167E-01  0.20730097E-01
  0.57154182E-01 -0.87949596E-02  0.30844204E-01 -0.17324708E-01
 -0.67216757E-03  0.66427328E-02  0.19945206E-01  0.24971854E-01
  0.30873107E-01  0.13570252E-01 -0.68256557E-01  0.30832371E-01
  0.22241369E-01 -0.16376127E-02 -0.12042128E-01 -0.16067504E-02
 -0.53055108E-01  0.24462871E-01  0.78554563E-02 -0.98696314E-02
 -0.61809979E-02  0.83083138E-02 -0.34189981E-02  0.37059982E-02
 -0.70023984E-02  0.45059733E-02 -0.20708663E-02  0.94396882E-02
  0.11253029E-01 -0.92065595E-02  0.81361661E-03 -0.75608422E-03
  0.33125302E-02  0.41626208E-02  0.37212595E-02  0.41885446E-02
  0.60033691E-02  0.81377737E-02  0.13521595E-02  0.25659313E-02
 -0.80228671E-02  0.31734095E-02  0.90754888E-03  0.38459079E-03
 -0.12874377E-02 -0.29407945E-02 -0.58028959E-02 -0.11697264E-01
  0.18782511E-02  0.10815330E-01 -0.28420230E-02  0.76707802E-03
 -0.40857978E-02  0.25540702E-02
