  0.64934902E+01 -0.60000788E-01  0.15284568E+00  0.42398740E-01
  0.80449134E-02 -0.12943847E-02 -0.18471057E-01  0.14364938E-01
 -0.27232723E-01  0.34205064E-02  0.44790655E-03  0.49032946E-03
 -0.11499409E-01 -0.88309318E+00 -0.13880616E+00  0.72883040E+00
 -0.23786406E+00  0.56492411E-01 -0.44968978E+00  0.27552202E-01
 -0.10558826E+00 -0.26403385E+00 -0.71968925E-02 -0.76252699E-01
 -0.75245738E-01  0.36521424E-01  0.10725157E+02  0.11520149E+01
 -0.29717493E+01  0.77741122E+00  0.10456991E+01 -0.56724101E+00
  0.10612049E+01 -0.19255698E-01  0.20865388E+00  0.83688870E-02
  0.17841756E+00  0.38568933E-01 -0.13791543E+00  0.65042410E+01
 -0.35215242E+01 -0.41706262E+01  0.52065020E+01  0.25852561E+00
  0.73438554E+01 -0.40593761E+00  0.99215269E+00  0.34198158E+01
  0.59768510E+00  0.13837194E+01  0.21450300E+01 -0.30246961E+00
 -0.73952774E+02 -0.10371048E+02  0.20006668E+02 -0.58430324E+01
 -0.17244535E+02  0.25785177E+01 -0.66231852E+01 -0.10432463E+01
  0.73055929E+00  0.10648136E+01 -0.16124161E+01  0.77939093E-01
  0.78449035E+00  0.16648845E+00  0.12172330E+02 -0.27850800E+01
 -0.25546801E+02  0.91742992E+01 -0.32795715E+02  0.28933215E+00
 -0.56761966E+01 -0.18448345E+02 -0.33526461E+01 -0.67829113E+01
 -0.12907631E+02 -0.90398949E+00  0.15081432E+03  0.33412430E+02
 -0.50513577E+02  0.15113484E+02  0.58774567E+02 -0.36906853E+01
  0.14214766E+02  0.30996857E+01 -0.45489941E+01 -0.52512522E+01
  0.42320633E+01 -0.65626699E+00 -0.12561435E+01 -0.37230698E+02
 -0.76325498E+01  0.37164612E+02  0.49207066E+02 -0.43934429E+02
  0.60087311E+02  0.41347008E+01  0.15909639E+02  0.43547516E+02
  0.70065866E+01  0.12691342E+02  0.29472048E+02  0.48083038E+01
 -0.14633238E+03 -0.42288406E+02  0.54256516E+02 -0.17434313E+02
 -0.73183670E+02  0.16437654E+01 -0.12896774E+02 -0.25577698E+01
  0.64732409E+01  0.78860898E+01 -0.44402704E+01  0.10190878E+01
  0.83452725E+00  0.52198566E+02 -0.78648906E+01 -0.54521667E+02
 -0.41549358E+02  0.62281204E+02 -0.48637405E+02 -0.83191109E+01
 -0.19453854E+02 -0.45155910E+02 -0.66038690E+01 -0.10019680E+02
 -0.28811020E+02 -0.57783604E+01  0.55789322E+02  0.18161957E+02
 -0.20868530E+02  0.74471412E+01  0.30560638E+02  0.63638091E-01
  0.42821302E+01  0.46981829E+00 -0.28367577E+01 -0.37410164E+01
  0.16539935E+01 -0.48298734E+00 -0.21111564E+00 -0.20312286E+02
  0.70529175E+01  0.23697172E+02  0.12980739E+02 -0.27796112E+02
  0.14427420E+02  0.43019180E+01  0.83882170E+01  0.16908129E+02
  0.23868091E+01  0.27971561E+01  0.10196642E+02  0.21167965E+01
 -0.23634212E+00  0.20315304E+01  0.14751930E+01  0.51506601E-01
 -0.41991580E-01 -0.66530518E-02  0.60239170E-01  0.42047124E-01
  0.14694091E-01  0.14501675E-01  0.22909958E-01  0.50704996E-02
 -0.13813756E-01  0.24778871E-01 -0.13336086E+01  0.20401323E+01
 -0.29250428E-01  0.11255962E+00 -0.27715957E-01 -0.61806727E-01
  0.33551301E-02  0.49672596E-01 -0.88648424E-02  0.15672090E-01
 -0.17772950E-01  0.25840359E-01 -0.94002926E+00  0.96187341E+00
 -0.48695213E+00 -0.14855824E-01  0.85204065E-01  0.68687499E-01
  0.59923762E+00 -0.17397808E+00  0.52780789E+00 -0.97602300E-01
 -0.50955068E-01  0.97110152E-01  0.78837097E-01 -0.15056741E+00
  0.25372839E+00  0.77975589E+00  0.44844516E-01  0.66648591E+00
  0.29808592E-01 -0.28804496E-01  0.27313727E+00  0.57353723E+00
 -0.14783476E+00 -0.54335695E-01  0.18213356E+00 -0.17622779E+00
  0.44821749E+01  0.12306819E+02  0.71697431E+01 -0.92180443E+00
  0.17149887E+01  0.12936373E+01 -0.14673869E+00 -0.16734647E+01
 -0.90978974E+00 -0.64830923E+00 -0.10648319E+01  0.25684690E+00
 -0.10137749E+00  0.85512936E-01 -0.10835257E+02  0.85481062E+01
  0.11747246E+01  0.18459187E+01  0.27393371E+00  0.21028149E+01
 -0.48073649E+00 -0.68387586E+00  0.73008960E+00 -0.79940557E-01
  0.11825161E+01 -0.94839275E+00  0.13821822E+02 -0.18135984E+02
  0.25114822E+02  0.74971113E+01  0.18632154E+01  0.13507413E+01
 -0.10556159E+02  0.19317436E+01 -0.81330175E+01  0.36078360E+01
  0.21540526E+00 -0.27909286E+01 -0.10886441E+01  0.62252502E+01
 -0.13018351E+02 -0.10101440E+02 -0.10007334E+01 -0.14628851E+02
  0.11357670E+01  0.36046579E+01 -0.42910976E+01 -0.89776678E+01
 -0.89598782E-02 -0.42933545E+00 -0.15849819E+01  0.34161615E+01
 -0.17371536E+02 -0.66748367E+02  0.62607895E+02  0.20953901E+02
 -0.16884048E+02 -0.15206277E+02 -0.11621352E+01  0.13002543E+02
  0.13039216E+02  0.52742462E+01  0.93021603E+01 -0.34476852E+01
  0.56655067E+00 -0.56244600E+00 -0.33539307E+02 -0.27122938E+02
 -0.17939257E+02 -0.18481977E+02 -0.38500452E+00 -0.14842595E+02
 -0.31616001E+01  0.47638435E+01 -0.45677814E+01 -0.55476630E+00
 -0.94443140E+01  0.57917881E+01 -0.74925003E+02  0.14071362E+03
 -0.14038927E+03 -0.58120228E+02  0.71764202E+01 -0.49531412E+01
  0.62205994E+02 -0.40746994E+01  0.32049103E+02 -0.27928362E+02
  0.17490292E+01  0.17929642E+02  0.32690542E+01 -0.65806335E+02
  0.54215317E+02  0.98710693E+02 -0.88018885E+01  0.75170929E+02
 -0.11637874E+02 -0.30119812E+02  0.31769405E+02  0.47102097E+02
  0.81819420E+01  0.76862321E+01  0.71875305E+01 -0.20791471E+02
  0.89678278E+01  0.10135834E+03 -0.35098581E+03 -0.86679382E+02
  0.51673244E+02  0.53351055E+02  0.76851797E+00 -0.36545685E+02
 -0.47825405E+02 -0.15288160E+02 -0.24478300E+02  0.11542590E+02
  0.20585670E+01  0.16705963E+02  0.25283752E+03 -0.40345551E+02
  0.73295853E+02  0.65839951E+02  0.55188236E+01  0.37025745E+02
  0.24288328E+02 -0.10951291E+02  0.91241064E+01  0.23609194E+00
  0.27590467E+02 -0.15265543E+02  0.19687543E+03 -0.38724146E+03
  0.30177783E+03  0.15378909E+03 -0.65229538E+02 -0.34766834E+01
 -0.15835889E+03  0.39712992E+01 -0.47045303E+02  0.82022125E+02
 -0.10522799E+02 -0.45835918E+02 -0.15153828E+01  0.19607631E+03
 -0.66795013E+02 -0.28728564E+03  0.45004833E+02 -0.16881577E+03
  0.29734268E+02  0.87140701E+02 -0.93818207E+02 -0.11390156E+03
 -0.33501694E+02 -0.25811827E+02 -0.17500469E+02  0.51393459E+02
  0.36721817E+02 -0.58378582E+02  0.52954004E+03  0.12650403E+03
 -0.61309464E+02 -0.72215317E+02  0.55067844E+01  0.43052780E+02
  0.65146362E+02  0.18467985E+02  0.23828384E+02 -0.14804020E+02
 -0.66496487E+01 -0.41053898E+02 -0.39513181E+03  0.14958511E+03
 -0.11126385E+03 -0.10337822E+03 -0.17559296E+02 -0.34940395E+02
 -0.43032944E+02  0.85262613E+01 -0.69466352E+01  0.36357472E+01
 -0.34809723E+02  0.18168348E+02 -0.24683015E+03  0.44674805E+03
 -0.29277637E+03 -0.16985976E+03  0.11071173E+03  0.20931091E+02
  0.18121008E+03 -0.38683252E+01  0.23711790E+02 -0.10216880E+03
  0.16843338E+02  0.51287094E+02 -0.42596769E+01 -0.21369887E+03
  0.15854465E+02  0.32373215E+03 -0.56573437E+02  0.18293462E+03
 -0.24894987E+02 -0.10696294E+03  0.11558175E+03  0.12890712E+03
  0.48120483E+02  0.32083450E+02  0.20970276E+02 -0.55741138E+02
 -0.36825500E+02  0.12671241E+02 -0.24902856E+03 -0.60534363E+02
  0.24415833E+02  0.33357071E+02 -0.56761298E+01 -0.18138474E+02
 -0.29999865E+02 -0.79703002E+01 -0.73311758E+01  0.64502964E+01
  0.43373957E+01  0.26744598E+02  0.18625591E+03 -0.93930145E+02
  0.56447620E+02  0.58127300E+02  0.13249874E+02  0.98932362E+01
  0.23001038E+02 -0.14396305E+01  0.16029671E+01 -0.36048810E+01
  0.15927849E+02 -0.79116158E+01  0.11669274E+03 -0.18738850E+03
  0.10586761E+03  0.65915176E+02 -0.55447582E+02 -0.14503894E+02
 -0.76371857E+02  0.23939581E+01 -0.49679351E+00  0.45396576E+02
 -0.83436613E+01 -0.20962418E+02  0.35527294E+01  0.76042999E+02
  0.11706136E+02 -0.12662367E+03  0.20020096E+02 -0.78973938E+02
  0.45572462E+01  0.47576385E+02 -0.49966721E+02 -0.54524887E+02
 -0.23131269E+02 -0.13527062E+02 -0.95180092E+01  0.22111982E+02
  0.19034376E-01  0.98584294E-01  0.10540416E-01 -0.10316916E+01
 -0.50497759E-01 -0.28466880E-02  0.14425300E-01  0.89508248E-03
  0.40291805E-01 -0.58668959E-02 -0.37617795E-02  0.81910542E-03
  0.14230343E-01  0.55068705E-01 -0.61659031E-02  0.25711080E-01
  0.34259059E-01 -0.75383472E+00  0.40433593E-02 -0.13901707E-01
 -0.40712301E-01 -0.29276971E-01 -0.10735628E-01 -0.72969962E-03
 -0.98825954E-02 -0.17654423E-02  0.12820826E+00  0.71660626E+00
  0.71653312E+00  0.37673324E+00 -0.52130514E+00  0.26109612E+00
 -0.33626252E+00  0.12658983E+00  0.23496895E+00  0.45112647E-01
  0.10876165E-01 -0.79171479E-01 -0.49059771E-01  0.84820718E+00
  0.11983800E+00  0.93958414E+00  0.63321990E+00  0.95848078E+00
  0.16888374E+00  0.38933191E+00 -0.13174997E+00 -0.13978601E+00
 -0.28500170E+00 -0.16895264E+00  0.28273299E-01 -0.13272935E+00
  0.10719461E+01 -0.10473357E+01  0.16151114E+01  0.88533993E+01
  0.29226627E+01 -0.44834805E+00 -0.18926812E+01 -0.10330507E+01
  0.70661664E-01  0.34604049E+00  0.24440202E+00 -0.55603737E+00
 -0.15387839E+00  0.15618076E+01  0.14701883E+00 -0.74968100E-01
 -0.39555376E+01  0.69049401E+01 -0.19420260E+00  0.57892245E+00
 -0.79809880E+00  0.60062045E+00  0.22479728E-01 -0.32704270E+00
  0.23038144E+00  0.36810511E+00 -0.29060514E+01 -0.35181141E+01
 -0.57364321E+01  0.55235319E+01  0.45822948E+00 -0.15032139E+01
  0.21021149E+01 -0.25328857E+00 -0.18473366E+01 -0.84338069E-01
  0.39706537E+00  0.18311097E+00  0.12498159E+01 -0.99295187E+01
 -0.10716363E+01 -0.49983826E+01 -0.20832243E+01  0.18830384E+01
  0.86717826E+00 -0.15240573E+01  0.21804466E+01  0.58699912E+00
  0.14913263E+01  0.91169506E+00  0.18899290E+00  0.18160113E+01
 -0.94457226E+01  0.17658323E+02 -0.11660739E+02 -0.68379431E+01
 -0.55005393E+01  0.43817205E+01  0.11818675E+02  0.47689600E+01
  0.28519672E+00 -0.19000348E+01 -0.25939710E+01  0.37662928E+01
  0.75847077E+00 -0.56515369E+01  0.91205730E+01 -0.19686935E+01
  0.13128128E+02 -0.68311536E+00  0.99185145E+00 -0.16249561E+01
  0.51543722E+01 -0.11013594E+01 -0.84779024E-01  0.18501140E+01
 -0.38142788E+00 -0.30122881E+01  0.75019464E+01  0.35646598E+01
  0.11501076E+02 -0.18637678E+02 -0.69856590E+00  0.35613029E+01
 -0.47264385E+01 -0.46824560E+00  0.42374134E+01 -0.10472507E+00
 -0.11728554E+01 -0.23341642E+00 -0.39178734E+01  0.26873823E+02
 -0.89032382E+00  0.74988828E+01  0.33407247E+01 -0.96325502E+01
 -0.34091043E+01  0.21045971E+01 -0.56645594E+01  0.19026136E+00
 -0.22414274E+01 -0.13311146E+01 -0.59583026E+00 -0.46499023E+01
  0.21163467E+02 -0.48009995E+02  0.25364655E+02 -0.28718992E+02
  0.28193629E+00 -0.14275018E+02 -0.20585052E+02 -0.64663582E+01
 -0.17794695E+01  0.29850130E+01  0.60325069E+01 -0.71860552E+01
 -0.16418027E+01  0.39766912E+01 -0.27315859E+02  0.82747126E+01
 -0.15480449E+02 -0.37333546E+02 -0.14049911E+01 -0.78134067E-01
 -0.88510962E+01 -0.22243376E+01  0.97602409E+00 -0.25714509E+01
 -0.92084914E+00  0.73255782E+01 -0.59779358E+01  0.12392722E+01
 -0.78840609E+01  0.12213485E+02 -0.45400095E+00 -0.31542864E+01
  0.34382265E+01  0.87975073E+00 -0.27262013E+01  0.43419164E+00
  0.68464506E+00  0.22095340E+00  0.30523138E+01 -0.20467281E+02
  0.39570873E+01 -0.23940723E+01  0.22183470E+00  0.45692406E+01
  0.23968153E+01 -0.16324166E+01  0.37603848E+01 -0.13567247E+01
  0.12711171E+01  0.64020485E+00  0.41453236E+00  0.32386904E+01
 -0.14195784E+02  0.34288696E+02 -0.15830329E+02  0.32217911E+02
  0.34044676E+01  0.12452764E+02  0.10785024E+02  0.26360891E+01
  0.13603802E+01 -0.15146807E+01 -0.39355421E+01  0.41184168E+01
  0.11697750E+01  0.83907938E+00  0.17864227E+02 -0.90199423E+01
  0.53105707E+01  0.36594131E+02  0.70343792E+00  0.17940168E+01
  0.47861300E+01  0.37236946E+01 -0.12472181E+01  0.73165965E+00
  0.12939290E+01 -0.52513409E+01 -0.64028978E-01  0.89368582E-01
 -0.10483639E+00 -0.41617226E-01  0.42851824E-01 -0.37522113E+00
 -0.74830669E+00 -0.35888157E-02  0.50473485E-01  0.39554738E-01
  0.17244505E-01 -0.62780869E-02  0.40925257E-02  0.47223814E-01
 -0.15007500E+00 -0.77078819E-01  0.23586081E-01 -0.40981133E-01
  0.73113239E+00 -0.37994540E+00 -0.29909760E-01  0.14559224E-01
  0.11881359E-01 -0.21748170E-01  0.17178882E-01  0.25832307E-01
 -0.12422318E+00  0.75573784E+00  0.11975992E+00 -0.26279080E+00
 -0.63855439E+00 -0.10346420E+00 -0.24757488E+00  0.83832867E-01
 -0.37987664E-01  0.47420461E-01  0.51827621E-01 -0.82543485E-01
 -0.48918199E-01 -0.25143119E-01 -0.32514679E+00 -0.23532417E+00
 -0.13309411E-01 -0.85015297E-01  0.38035685E+00  0.60264967E-01
 -0.13409160E-01 -0.31570800E-01 -0.10386515E+00 -0.10889218E-01
  0.21442086E-01 -0.58925855E-02  0.51993853E+00 -0.57693455E-01
  0.28187776E+00 -0.73442996E-01 -0.19520199E+00 -0.11351214E-01
  0.58080941E+00 -0.54905403E+00  0.22085562E+00 -0.66554368E-01
 -0.17385942E+00  0.18870948E-03 -0.11992918E+00 -0.21958470E+00
  0.21047790E+01 -0.20394138E+00 -0.57054359E+00  0.54538924E-01
 -0.12259455E+01  0.53822301E-01 -0.47958690E+00 -0.65027052E+00
 -0.24385015E-01  0.14002997E+00 -0.22192314E+00 -0.13525110E+00
 -0.54393631E+00 -0.13514566E+01  0.26100159E+00  0.43233761E+00
  0.97404122E+00  0.40088600E+00  0.80763835E+00 -0.98028898E-01
  0.11027521E+00 -0.10748786E+00 -0.36647193E-01  0.19190548E+00
  0.88344038E-01 -0.25658113E+00  0.72416735E+00  0.57697695E+00
 -0.34691739E+00  0.32392943E+00 -0.13627892E+01  0.11442542E+00
 -0.10774225E+00  0.10521625E+00  0.98740995E-01  0.29976498E-01
  0.26290990E-01 -0.56078196E-01  0.27019137E+00  0.45024633E+00
 -0.17958546E+00  0.12233192E+00  0.51881069E+00  0.42524201E+00
  0.30084956E+00  0.94178414E+00 -0.65111023E+00 -0.27122756E-01
  0.76508403E-01 -0.85360545E-04  0.12641454E+00  0.79744749E-01
 -0.28821568E+01  0.73260629E+00  0.53177392E+00  0.33241987E+00
  0.14034442E+01  0.37998933E+00  0.94033831E+00  0.12633944E+01
 -0.60186643E-01 -0.11780189E+00  0.26741916E+00  0.93822658E-01
 -0.40619414E-01  0.80723651E-02 -0.33849481E-01  0.31438515E-01
  0.26720108E-01  0.34434192E-01  0.15387810E-01  0.30153817E+00
 -0.68199992E-01  0.15819103E-01  0.84541179E-02 -0.12130376E-01
 -0.27178496E-02  0.10475044E+00  0.49542673E-02  0.35022680E-01
  0.87533653E-01 -0.61479896E-01 -0.14135311E-01 -0.12770660E-01
  0.36308039E-01  0.26710707E+00  0.10513935E-01 -0.55483915E-02
  0.76266038E-02 -0.12753191E-01 -0.21390149E-02  0.58438718E-01
 -0.11032433E+00  0.12841827E+00 -0.22302933E+00 -0.96188486E-01
  0.17974999E-01  0.29908019E+00  0.44135422E+00 -0.46303540E-01
  0.41154433E-01 -0.14057259E-01  0.87432861E-02  0.30396742E+00
  0.75595438E-01 -0.15522313E+00 -0.17690331E-02  0.20859616E+00
 -0.87131821E-02 -0.10404949E+00 -0.36777055E+00  0.11611283E+00
 -0.29208448E-02 -0.80868125E-01  0.16911153E-01  0.13700172E-01
 -0.13175464E+00 -0.61796587E-01 -0.48755106E-01 -0.12370612E-01
 -0.54931860E-01 -0.18966548E-01  0.25214598E-01  0.38970198E-01
 -0.42744718E-01  0.83304524E-01  0.22285061E+00 -0.54338342E-03
  0.11550711E-02  0.12497650E-01  0.33643264E-01 -0.49855206E-01
  0.77534854E-01 -0.20823942E-01  0.56232177E-02 -0.27867476E-01
  0.31055158E-01  0.45609649E-01 -0.22880864E+00  0.88289440E-01
  0.14045585E-01 -0.77454448E-02 -0.15834920E-01 -0.47239352E-01
  0.55206645E-01 -0.21747218E-01  0.19386901E-01  0.35340980E-01
  0.19234708E-01  0.55831406E-01  0.12493883E-01 -0.18281758E-01
 -0.14992006E-01 -0.12327415E+00  0.10836016E-01  0.29655596E-01
  0.94482973E-02 -0.85593499E-02  0.62130173E-02  0.62354229E-01
  0.73285471E-02 -0.53194743E-01 -0.14881391E-01  0.54990910E-02
 -0.13634078E-01 -0.12771357E-01  0.14701583E-02 -0.12577879E+00
  0.20759542E-01  0.37858861E-02 -0.38624063E-01  0.25079563E-01
  0.28830523E-01  0.14798064E-01  0.11077591E-01  0.17425487E-01
  0.35621811E-01 -0.25656393E-01 -0.24061343E-01  0.10520254E-01
  0.45533031E-02  0.66021502E-01 -0.21064222E-01 -0.72724116E-02
  0.14031812E-01  0.59114881E-01  0.15700981E-01  0.68930606E-02
 -0.33762053E-01 -0.16519625E-01 -0.90381280E-02 -0.59326994E-02
  0.11942730E-01  0.13869076E-01  0.63189805E-01  0.68125665E-01
 -0.60883962E-01 -0.21250362E-01 -0.66251676E-02 -0.73823370E-02
  0.39793648E-01 -0.44493157E-01  0.10462926E-01 -0.12947633E-01
 -0.25500299E-02 -0.15238016E-01  0.15929744E-01 -0.17856486E-01
 -0.52744091E-01 -0.53626947E-01  0.39534133E-01  0.30350424E-01
  0.46890299E-02 -0.20292008E-02  0.65144040E-02  0.41108795E-01
 -0.98453537E-02 -0.10881118E-01  0.51510613E-03  0.14489322E-01
  0.97736454E+01  0.14032149E+00  0.20471638E+00  0.45970183E-01
  0.19347200E-01  0.34263048E-02 -0.56153458E-01  0.16434990E-01
 -0.13611991E-01  0.26763937E-01  0.57403482E-02  0.63922629E-02
 -0.11557202E-01  0.21873844E+00 -0.40463656E-02  0.25696558E+00
 -0.28938836E+00  0.35062745E+00  0.15157066E+00 -0.29073572E+00
  0.10218960E+00 -0.17300346E+00 -0.40608421E-01 -0.18231004E-01
 -0.10038074E-01  0.41188151E-01  0.30748093E+02 -0.22748404E+01
 -0.31234465E+01  0.27615955E+01  0.15846490E+01 -0.34613085E+00
  0.56108177E+00  0.11689794E+00  0.14760590E+00 -0.10534286E+01
 -0.31982249E+00  0.22981022E+00 -0.44722270E-01 -0.14903675E+02
  0.10495949E+00  0.34792297E+01  0.47500277E+01 -0.45592585E+01
 -0.62566572E+00  0.40229530E+01 -0.11005297E+01  0.26008978E+01
 -0.20069686E+00  0.20519114E+00  0.83855027E+00 -0.12517659E+00
 -0.15924529E+03  0.13519260E+02  0.10932476E+02 -0.29060255E+02
 -0.17306379E+02  0.23026781E+01 -0.11505022E+01  0.89456850E+00
  0.19126707E+00  0.56772122E+01  0.24429233E+01 -0.23409443E+01
  0.10148535E+01  0.11584834E+03 -0.17900436E+02 -0.13041323E+02
 -0.16672867E+02  0.35105484E+02 -0.30701971E+01 -0.21194824E+02
  0.64325066E+01 -0.15774624E+02  0.32018070E+01  0.94925410E+00
 -0.46957254E+01 -0.13125658E+01  0.29437546E+03 -0.25372299E+02
 -0.15352103E+02  0.91963020E+02  0.53816132E+02 -0.39363289E+01
 -0.11707983E+01 -0.62234497E+01 -0.21492355E+01 -0.11163956E+02
 -0.70858798E+01  0.70973525E+01 -0.29095373E+01 -0.29224634E+03
  0.61603146E+02 -0.42039785E+01  0.19493484E+02 -0.98674660E+02
  0.13333192E+02  0.47858608E+02 -0.16327667E+02  0.39196564E+02
 -0.93861618E+01 -0.60532713E+01  0.96561794E+01  0.45459681E+01
 -0.26182544E+03  0.17990250E+02  0.11552253E+02 -0.11288570E+03
 -0.65355698E+02  0.19973888E+01  0.40330248E+01  0.10058838E+02
  0.31824427E+01  0.93387594E+01  0.84235001E+01 -0.84775352E+01
  0.29146051E+01  0.29994775E+03 -0.74359123E+02  0.36368927E+02
 -0.57280788E+01  0.11249139E+03 -0.15975359E+02 -0.48075104E+02
  0.17203217E+02 -0.41371586E+02  0.10335050E+02  0.90007267E+01
 -0.86931515E+01 -0.47164726E+01  0.91385612E+02 -0.41139164E+01
 -0.41653347E+01  0.47360001E+02  0.27213379E+02 -0.10529798E-02
 -0.22038870E+01 -0.48923016E+01 -0.13381233E+01 -0.28368788E+01
 -0.34559803E+01  0.34892290E+01 -0.93806016E+00 -0.10869085E+03
  0.30786818E+02 -0.22838776E+02 -0.15038880E+01 -0.44714828E+02
  0.61636324E+01  0.17758163E+02 -0.62771397E+01  0.15508571E+02
 -0.38858967E+01 -0.40972462E+01  0.29156959E+01  0.15558701E+01
 -0.13369411E+00  0.17268353E+01  0.14351931E+01  0.76106489E-01
 -0.28437421E-01 -0.11006787E-01  0.26756639E-01  0.27960544E-01
  0.89221098E-03  0.14117886E-01  0.26185047E-01 -0.14624753E-02
 -0.14191493E-01  0.24574745E+00 -0.14273099E+01  0.15711823E+01
 -0.83912969E-01  0.46123274E-01 -0.25364887E-01 -0.29690675E-01
 -0.29524008E-01  0.19983063E-01 -0.17720956E-01  0.16691633E-01
 -0.70638615E-02 -0.72944127E-02  0.39862120E+00 -0.13170791E+00
 -0.64909154E+00 -0.32600099E+00  0.21109907E+00 -0.12451130E+00
  0.43011889E+00 -0.18416306E+00  0.24612100E+00 -0.10645312E+00
  0.16143292E+00 -0.21634486E-01  0.63935578E-01  0.92620963E+00
 -0.49406093E+00  0.64722395E+00 -0.72104096E-01  0.28068078E+00
  0.60120350E+00  0.27893120E+00  0.30756903E+00  0.17852146E-01
 -0.17372718E+00 -0.12843072E-01  0.60005605E-01 -0.44218379E+00
  0.10201951E+01  0.13495907E+02 -0.10630936E+02 -0.10683584E+01
  0.58663213E+00 -0.10076990E+01 -0.52236598E-01 -0.47220087E+00
  0.46965638E+00 -0.10257159E+01 -0.77649903E+00  0.21886134E+00
 -0.13192790E-01 -0.63123817E+01  0.98021412E+01  0.17635956E+02
  0.41804466E+01  0.17669467E+01  0.96404302E+00 -0.45744419E-01
  0.97980118E+00 -0.73717678E+00 -0.27884775E+00 -0.14686048E+00
  0.75753582E+00  0.43112880E+00 -0.29365110E+01 -0.14322777E+01
  0.14004352E+02  0.79823327E+00 -0.58754282E+01  0.25628233E+01
 -0.86770878E+01  0.29869022E+01 -0.79320562E+00  0.71983647E+00
 -0.20778570E+01  0.96054983E+00 -0.10125141E+01 -0.14787667E+02
  0.89715195E+01 -0.16094650E+02  0.62427349E+01 -0.78737435E+01
 -0.20880356E+01 -0.53182232E+00 -0.72572398E+01  0.20186644E+01
 -0.28493702E+00 -0.16519641E+01 -0.56926078E+00  0.75286026E+01
  0.38437169E+01  0.23742905E+01  0.10843651E+03  0.32352238E+01
  0.29753845E+01  0.82216110E+01 -0.24196386E+01  0.54554968E+01
 -0.16184169E+00  0.67759500E+01  0.53559599E+01 -0.44717273E+00
 -0.89659041E+00  0.51551998E+02 -0.11602978E+03 -0.19592438E+02
 -0.36331177E+02 -0.12795038E+02 -0.63453693E+01  0.43711376E+01
 -0.10106876E+02  0.51247439E+01  0.35840931E+01  0.18366956E+01
 -0.68241382E+01 -0.46224632E+01 -0.85184898E+01  0.16360107E+02
 -0.82426071E+02  0.12709790E+02  0.42946472E+02 -0.15440465E+02
  0.50130875E+02 -0.12952685E+02 -0.69280119E+01 -0.39795117E+01
  0.73542223E+01 -0.55133829E+01  0.81558447E+01  0.96722000E+02
 -0.39015034E+02  0.11213722E+03 -0.45417725E+02  0.37435165E+02
 -0.13082532E+01 -0.10213684E+02  0.49293098E+02 -0.15153332E+02
  0.73512321E+01  0.14430302E+02  0.19037808E+01 -0.38897949E+02
 -0.43353897E+02 -0.20246556E+03 -0.28853784E+03  0.21355970E+01
 -0.19108793E+02 -0.21631132E+02  0.12639036E+02 -0.18742432E+02
 -0.96571703E+01 -0.16555695E+02 -0.14417871E+02  0.12324685E+00
  0.51283340E+01 -0.14933171E+03  0.32959497E+03 -0.18182323E+03
  0.11664076E+03  0.33371811E+02  0.17004456E+02 -0.19989792E+02
  0.32714706E+02 -0.11863820E+02 -0.12437938E+02 -0.82264690E+01
  0.19701036E+02  0.14783766E+02  0.80268509E+02 -0.52966339E+02
  0.19053438E+03 -0.56769222E+02 -0.11784625E+03  0.38850357E+02
 -0.12247974E+03  0.22450394E+02  0.35795441E+02  0.12220045E+02
 -0.89107666E+01  0.82319517E+01 -0.27355560E+02 -0.27648267E+03
  0.89760971E+02 -0.27464084E+03  0.11196627E+03 -0.69628693E+02
  0.97918758E+01  0.44225204E+02 -0.12664154E+03  0.35483719E+02
 -0.18650513E+02 -0.41325409E+02 -0.23082571E+01  0.85997482E+02
  0.88594849E+02  0.39292139E+03  0.33457983E+03 -0.12988246E+02
  0.27334517E+02  0.24206512E+02 -0.20228148E+02  0.24981491E+02
  0.22630323E+02  0.17233309E+02  0.16416183E+02 -0.32048082E+00
 -0.83845119E+01  0.18617632E+03 -0.39346265E+03  0.42378687E+03
 -0.15928719E+03 -0.40951447E+02 -0.20998566E+02  0.32289703E+02
 -0.42694336E+02  0.11828459E+02  0.17220367E+02  0.13173158E+02
 -0.22972109E+02 -0.18645218E+02 -0.14528056E+03  0.72072128E+02
 -0.21711533E+03  0.77514603E+02  0.13667310E+03 -0.45385799E+02
  0.13474229E+03 -0.16270966E+02 -0.53262211E+02 -0.17100185E+02
  0.23942337E+01 -0.10488987E+01  0.37738708E+02  0.35145361E+03
 -0.85622955E+02  0.26572534E+03 -0.10509779E+03  0.58970486E+02
 -0.46502333E+01 -0.66478333E+02  0.13732690E+03 -0.33438583E+02
  0.15821193E+02  0.48546875E+02  0.14652004E+01 -0.85408585E+02
 -0.52937943E+02 -0.20882059E+03 -0.14351865E+03  0.98669796E+01
 -0.11305204E+02 -0.10061108E+02  0.10184311E+02 -0.11492324E+02
 -0.13785836E+02 -0.64393110E+01 -0.66763268E+01  0.56769723E+00
  0.43437328E+01 -0.82705460E+02  0.16970370E+03 -0.24499573E+03
  0.77111313E+02  0.21147842E+02  0.97495165E+01 -0.17787201E+02
  0.19586733E+02 -0.44074764E+01 -0.82658710E+01 -0.68889666E+01
  0.94197063E+01  0.82319374E+01  0.79956360E+02 -0.38184708E+02
  0.95916229E+02 -0.35911255E+02 -0.56887787E+02  0.20183624E+02
 -0.54853703E+02  0.38453093E+01  0.25204601E+02  0.86927290E+01
  0.11558257E+01 -0.29337673E+01 -0.18029600E+02 -0.15973773E+03
  0.28304304E+02 -0.87137711E+02  0.30577972E+02 -0.21899443E+02
 -0.35690377E+01  0.34283482E+02 -0.53517757E+02  0.10929289E+02
 -0.38510756E+01 -0.20168243E+02 -0.64146167E+00  0.31352385E+02
  0.29265391E-01 -0.24591346E+00  0.14553225E+00 -0.84675032E+00
  0.61966658E+00 -0.31919140E-01  0.56226421E-01  0.23503462E-01
  0.53592059E-02 -0.20415215E-01  0.15285025E-01 -0.63779615E-02
  0.55775279E-03  0.90108335E-01 -0.20454387E+00 -0.73520787E-01
 -0.64477378E+00 -0.82056803E+00 -0.32559566E-01 -0.23924757E-01
 -0.15155605E-01 -0.23472777E-01 -0.29544419E-01  0.71342289E-02
 -0.47043152E-02 -0.47027953E-02  0.52882087E+00  0.75878024E+00
  0.37392047E+00  0.52214783E+00 -0.73013431E+00  0.44710666E+00
  0.54939020E-01  0.22959816E+00  0.20311102E+00 -0.81182413E-01
 -0.88519573E-01 -0.12205945E+00 -0.90271056E-01  0.76053393E+00
  0.47488004E+00  0.52843851E+00  0.69257706E+00  0.27872598E+00
  0.68038344E-01  0.28850752E+00 -0.78320973E-01  0.16159260E+00
 -0.23097008E+00 -0.32177996E-01  0.43377083E-01 -0.46754383E-01
  0.45139915E+00  0.33630769E+01 -0.12169753E+01 -0.37143755E+01
  0.72003303E+01 -0.30781597E+00 -0.21212358E+01 -0.96283770E+00
  0.84034169E+00  0.23972344E+00 -0.28099906E+00  0.56343921E-01
 -0.53734171E+00 -0.14882059E+01  0.13920954E+01  0.12130709E+01
 -0.79513631E+01 -0.25826595E+01 -0.42678672E+00  0.51285851E+00
  0.19756992E+00  0.12423239E+01  0.54061139E+00 -0.37421107E-01
  0.29954505E+00  0.11390960E+00 -0.56358538E+01 -0.57385159E+01
 -0.52712650E+01 -0.10486718E+01  0.53347263E+01 -0.35143900E+01
 -0.12000904E+01 -0.28657036E+01 -0.12631083E+01  0.94290608E+00
  0.92692262E+00  0.13676528E+01  0.12747040E+01 -0.10084607E+02
 -0.83411741E+00 -0.68800192E+01 -0.56028543E+01 -0.31238854E+00
  0.13777542E+01 -0.14698858E+01  0.52827829E+00 -0.40625009E+00
  0.18055103E+01 -0.78214061E+00 -0.69355130E-01  0.65176880E+00
  0.11241798E+01 -0.65113230E+01 -0.21158094E+01  0.29776367E+02
 -0.24963104E+02  0.54256268E+01  0.11766754E+02  0.49691448E+01
 -0.47331409E+01  0.25715870E+00  0.14093018E+01 -0.11038085E+01
  0.35657842E+01  0.14730918E+02 -0.30367286E+01 -0.11354827E+02
  0.30109863E+02  0.22487961E+02  0.39788237E+01 -0.24708538E+01
 -0.19585207E+01 -0.73399401E+01 -0.29647701E+01  0.20387474E+00
 -0.30212841E+01 -0.14654016E+01  0.14754129E+02  0.11049474E+02
  0.13400967E+02  0.58017559E+01 -0.10485389E+02  0.91833000E+01
  0.26157825E+01  0.80078144E+01  0.25257502E+01 -0.23380880E+01
 -0.18219414E+01 -0.34472320E+01 -0.37856760E+01  0.27359421E+02
 -0.55443001E+01  0.20240784E+02  0.79822860E+01  0.63297043E+01
 -0.35024121E+01  0.38299048E+01  0.60368818E+00  0.41653626E-02
 -0.47033873E+01  0.24803982E+01 -0.54888368E+00 -0.18400832E+01
 -0.71220398E+01 -0.11084242E+01  0.93044796E+01 -0.59619064E+02
  0.21860550E+02 -0.16687057E+02 -0.19368773E+02 -0.89723339E+01
  0.81729593E+01 -0.26830547E+01 -0.22497015E+01  0.32522850E+01
 -0.77899036E+01 -0.42522598E+02  0.84326611E+01  0.25657211E+02
 -0.35328537E+02 -0.45498714E+02 -0.12340077E+02  0.45494366E+01
  0.38336656E+01  0.14014010E+02  0.50293474E+01 -0.80758739E+00
  0.73919759E+01  0.33322277E+01 -0.14168421E+02 -0.38411448E+01
 -0.11940655E+02 -0.86237659E+01  0.33731954E+01 -0.65763731E+01
 -0.14734648E+01 -0.60773025E+01 -0.16627016E+01  0.18981389E+01
  0.91158038E+00  0.23963673E+01  0.29741066E+01 -0.22353622E+02
  0.11713837E+02 -0.14435800E+02  0.11054907E+01 -0.10635337E+02
  0.18735408E+01 -0.32202845E+01 -0.17535981E+01  0.22505578E+00
  0.38518553E+01 -0.17070560E+01  0.92721134E+00  0.15198689E+01
  0.53186111E+01  0.61862020E+01 -0.31186657E+01  0.37600204E+02
 -0.35645133E+00  0.12633383E+02  0.96007862E+01  0.52255840E+01
 -0.41970530E+01  0.22828407E+01  0.11919298E+01 -0.24510040E+01
  0.52333198E+01  0.34840073E+02 -0.12539687E+02 -0.16330978E+02
  0.10885726E+02  0.29065948E+02  0.10912359E+02 -0.25189369E+01
 -0.15795354E+01 -0.82213926E+01 -0.28210602E+01  0.71790761E+00
 -0.55111475E+01 -0.20255136E+01 -0.19228468E-01 -0.13114969E+00
  0.15714891E-01 -0.59424613E-01  0.61318099E-01 -0.58697617E+00
 -0.10644102E+01  0.20145897E-01 -0.13622614E-01 -0.18642440E-01
  0.22151217E-01  0.47150515E-02  0.11869197E-02  0.58520351E-01
 -0.16852538E+00 -0.50097305E-01  0.11990507E-01 -0.65762768E-02
  0.10272388E+01 -0.58508110E+00  0.10597579E-01  0.35774235E-01
 -0.15361955E-02 -0.45238875E-01 -0.18923515E-01 -0.59281816E-02
  0.25976366E+00  0.61606842E+00  0.13208784E-01  0.22894324E+00
 -0.39829195E+00  0.10561228E+00 -0.10849887E+00  0.61109383E-01
  0.13916729E+00  0.60511831E-01  0.12184702E-01  0.34330257E-02
  0.49652584E-01  0.33294815E+00  0.93975179E-02 -0.15443995E-01
  0.12950848E-01 -0.53923000E-01  0.16462354E+00  0.16396616E+00
 -0.73470592E-01  0.80365360E-01 -0.35155836E-01 -0.88913918E-01
 -0.47349852E-01  0.39145380E-01  0.11885967E+01  0.70961654E+00
  0.16401082E+00  0.73770243E+00 -0.50291091E+00  0.21559591E+01
  0.16197529E+01 -0.89583582E+00  0.20669129E+00  0.29641485E+00
  0.17593938E+00  0.21165987E-01 -0.99231154E-02 -0.12865351E+01
  0.23329020E+01 -0.46353474E+00 -0.75524986E-01  0.23183055E+00
 -0.19695919E+01  0.19060564E+01 -0.13436995E+00 -0.10136843E+01
  0.37376542E-01  0.39470100E+00  0.21998766E+00 -0.11666384E-01
 -0.71975422E+00 -0.56198859E+00  0.62459815E-01 -0.95555365E-01
  0.97378629E+00  0.58153582E+00  0.55926204E+00 -0.48008882E-01
 -0.39891303E+00 -0.46037633E-01  0.33642609E-01  0.59914339E-01
 -0.43716528E-01 -0.10643940E+01 -0.18275888E+00 -0.33081704E+00
 -0.55505341E+00  0.37782079E+00 -0.80053771E+00  0.45424262E+00
 -0.85584484E-02 -0.85956872E-01  0.12678234E+00  0.19393580E+00
  0.18442684E+00 -0.24153914E-01 -0.15753583E+01 -0.46785456E+00
 -0.12589588E+01 -0.16451540E+01  0.12443190E+01 -0.42283182E+01
 -0.14672079E+01  0.14503812E+01 -0.24458456E+00 -0.60518193E+00
 -0.42549506E+00 -0.76019049E-01 -0.11163372E+00  0.21944077E+01
 -0.25643044E+01  0.99713415E+00 -0.11333126E+00 -0.71992117E+00
  0.24609306E+01 -0.36890421E+01  0.18535006E+00  0.17068615E+01
 -0.43102510E-01 -0.49058509E+00 -0.35204017E+00 -0.33120696E-01
 -0.58546931E-01 -0.61199516E-02  0.13920870E-01 -0.22593589E-01
  0.60600404E-01 -0.26639463E-01 -0.16022459E-01  0.32998067E+00
 -0.22570471E+00  0.51776581E-02  0.17488200E-01 -0.34345095E-02
 -0.48399717E-02  0.23667345E-01  0.10178505E+00 -0.29486220E-01
  0.57037495E-01 -0.34963217E-01  0.11159873E-01 -0.30660912E-01
  0.19712470E+00  0.30310649E+00 -0.16301766E-01  0.55935443E-03
 -0.90922392E-03  0.42374507E-02 -0.16880973E+00  0.95758557E-01
 -0.14629465E+00  0.12069291E+00  0.56210212E-01 -0.12945680E+00
  0.17435408E+00  0.96609123E-01  0.45201021E+00 -0.36387533E-01
 -0.25372000E-01  0.18637779E-02 -0.35717620E-02  0.18735176E+00
 -0.15473641E-01  0.31935621E-01  0.47426187E-02  0.11311482E+00
 -0.13744950E+00 -0.12981302E+00 -0.40770859E+00  0.16419124E-01
  0.27462887E-03 -0.82576871E-01 -0.18355068E-01 -0.51394594E-02
 -0.22159742E-01 -0.74835721E-03 -0.36677279E-01  0.25976231E-01
  0.33930014E-02  0.16898615E-01  0.23251481E-02  0.38304761E-01
 -0.42265587E-01  0.20900027E+00  0.22713178E+00 -0.21249074E-02
 -0.10710888E-01  0.22197489E-01  0.83272219E-01 -0.76565206E-01
  0.21317841E-02 -0.13129897E-01  0.16477928E-01  0.48060704E-01
  0.35126519E-02  0.52965075E-01 -0.20686191E+00  0.17197242E+00
 -0.42362544E-02 -0.16804583E-01  0.21828219E-01 -0.31586766E-01
  0.81997097E-01  0.30568486E-01  0.17527277E-01  0.51112950E-01
 -0.15168884E-02  0.15925396E-02 -0.10897528E-01 -0.70789973E-02
  0.73832721E-02 -0.12407726E+00  0.85962117E-01  0.66300750E-01
  0.51962443E-01 -0.13351659E-01 -0.23629975E-01  0.20142781E-01
  0.38463738E-01 -0.13412733E-01 -0.93066990E-02 -0.41893609E-02
  0.41461214E-02 -0.17357357E-01 -0.11255020E+00 -0.12668882E+00
 -0.59766680E-01 -0.32285359E-01 -0.46988074E-01  0.39100412E-01
  0.98173134E-02  0.30527685E-01 -0.36675993E-01 -0.82789995E-02
  0.30238912E-01 -0.19059832E-02 -0.11280149E-01 -0.14733354E-01
 -0.83649457E-02  0.45781229E-01  0.46038054E-01  0.41310016E-01
 -0.11225827E+00 -0.28089361E-01  0.13309367E-01 -0.41037355E-01
 -0.30710906E-01 -0.95726699E-02 -0.23963353E-01  0.16758919E-01
  0.11331436E-01  0.23001432E-01  0.68212305E-02  0.87390661E-01
  0.28464919E-01 -0.32604266E-01 -0.19913837E-01 -0.69480479E-01
 -0.14800049E-01  0.22902381E-01  0.37979655E-01  0.20491345E-01
 -0.21194533E-01 -0.35256981E-02 -0.19661651E-02 -0.39640930E-01
  0.19599622E-01 -0.60924828E-01 -0.32056216E-01  0.47802251E-01
  0.17946444E-01 -0.80087408E-02  0.32511208E-01 -0.46744160E-02
  0.21583994E-02 -0.19618925E-01 -0.14446046E-01 -0.65722279E-02
  0.30586901E+01 -0.16637225E-01  0.11471305E-01  0.27490903E-02
  0.25678016E-02  0.37677907E-02  0.98502189E-02 -0.31296548E-02
 -0.10140380E-02 -0.13978875E+00  0.40312845E-01  0.71543939E-01
  0.19734308E-01 -0.78674182E-02 -0.28102145E-01 -0.14239721E-01
 -0.12600210E-01  0.16756020E-01  0.90984887E+00  0.30035329E+00
 -0.44702735E-01 -0.11969292E+00 -0.10557235E+00 -0.41341107E-01
 -0.80306888E-01  0.44076689E-01  0.34757946E-01  0.86042881E-01
 -0.43596476E+00 -0.28588772E+00 -0.25438230E-01  0.25069172E-01
  0.82588375E-01  0.67566931E-01  0.33206835E-01 -0.41824643E-01
 -0.12932892E+01 -0.72340822E+00  0.77358042E-02  0.28751051E+00
  0.31436360E+00  0.10259445E+00  0.24149394E+00 -0.12717050E+00
 -0.11702043E+00 -0.22331178E-01  0.38658845E+00  0.28259498E+00
  0.19711517E-02 -0.24714001E-01 -0.56775015E-01 -0.61311476E-01
 -0.21844219E-01  0.23831610E-01  0.39463905E+00  0.47750133E+00
  0.76429836E-01 -0.16718167E+00 -0.21960318E+00 -0.68737447E-01
 -0.17916366E+00  0.90928324E-01  0.88356256E-01  0.15348784E-01
 -0.19566035E+00 -0.33543330E+00  0.15999720E-01 -0.25417623E-02
  0.83187260E-02  0.10059297E-01 -0.18240045E-02 -0.25734284E-02
  0.16147815E-01  0.36533713E+00 -0.16898608E+00 -0.20461163E-01
  0.10633610E-01 -0.42438929E-03 -0.20938260E-01 -0.21641953E-02
  0.55525005E-02 -0.45814317E-01  0.26786933E-01  0.10879261E+00
  0.84931552E-01  0.15261322E-01 -0.21805950E-01 -0.14455589E-01
  0.77350582E-02  0.63701212E-01  0.53684931E-01  0.14995108E-01
 -0.27922710E-01 -0.33047087E-01  0.29755291E-01 -0.18964428E-01
 -0.24144309E-01  0.18880598E-01  0.58857311E-01 -0.22821715E+00
  0.75741506E+00  0.14800968E+01  0.46163443E-01 -0.14732170E+00
 -0.15568149E+00 -0.56558043E-01  0.70298553E-01  0.11026068E+00
 -0.79187077E+00 -0.15295104E+01  0.65210593E+00  0.17441596E+00
  0.41551359E-01 -0.66639602E-01  0.12556064E+00 -0.61385304E-01
  0.27926460E-01  0.87673563E+00 -0.39955688E+00 -0.11206913E+01
 -0.28584504E+00 -0.59748329E-02  0.23729973E+00 -0.19509707E+00
  0.81449509E-01 -0.73962659E+00  0.28284615E+00  0.89057446E+00
  0.18807463E+00 -0.24254572E+00 -0.17398730E-01  0.79301968E-02
  0.20122550E+00  0.40711228E-01 -0.34922600E+00  0.67434174E+00
 -0.67298323E+00 -0.74801010E+00 -0.38288945E+00  0.36076793E+00
  0.47676268E+00  0.13727283E+00 -0.16624431E+00 -0.43988281E+00
  0.26705711E+01  0.34237185E+00 -0.97559363E+00 -0.27165592E+00
 -0.16340864E+00  0.21915102E+00 -0.12436141E+00  0.95994294E-01
 -0.12902556E+00 -0.24572020E+01  0.30924755E+00  0.28079758E+01
  0.50721401E+00 -0.17149810E+00 -0.52098668E+00  0.85138261E+00
 -0.28973019E+00  0.17749032E+01 -0.11304550E+01 -0.23089056E+01
 -0.42302924E+00  0.84942168E+00  0.32151359E+00  0.73436797E-01
 -0.39552432E+00 -0.25851828E+00  0.62756401E+00 -0.39601427E+00
  0.25266504E+00 -0.31376165E+00  0.29245359E+00 -0.21280552E+00
 -0.37739211E+00 -0.73750854E-01  0.96640050E-01  0.40330353E+00
 -0.21711264E+01  0.10492506E+01  0.67013448E+00  0.88845730E-01
  0.71819246E-01 -0.15133917E+00 -0.11708714E-01 -0.57785511E-02
  0.95103085E-01  0.18162584E+01  0.38207388E+00 -0.23117476E+01
 -0.38997960E+00  0.19229440E+00  0.28452802E+00 -0.74004078E+00
  0.22057386E+00 -0.11552706E+01  0.10284768E+01  0.18343010E+01
  0.33841425E+00 -0.62726456E+00 -0.48800993E+00 -0.87205529E-01
  0.21157786E+00  0.21693029E+00 -0.32993799E+00 -0.18698255E-01
 -0.71124732E-02 -0.16465350E-02  0.46282001E-01 -0.15294395E+00
 -0.13111427E-03 -0.99337585E-02 -0.43608658E-02 -0.90814829E-02
  0.45116879E-02 -0.97028874E-02  0.12505713E-01  0.16136163E+00
  0.81213892E-01 -0.58312336E-03 -0.18872095E-01 -0.72849249E-02
  0.14784368E-02  0.11196059E+00  0.20533665E+00  0.13476495E+00
  0.33945632E+00 -0.11701983E+00  0.27578950E-01 -0.47568358E-01
  0.25997529E-01  0.16754407E-01 -0.93069017E-01  0.18283078E-01
  0.31589806E-01  0.22644910E+00  0.42842603E+00  0.72851181E-01
  0.11030860E-01  0.23866531E-02  0.14397725E-01  0.61859142E-01
  0.55517517E-01 -0.38489588E-01 -0.42788506E-01 -0.22592752E+00
 -0.99609435E-01  0.99531174E-01  0.29087326E-01  0.16361938E+00
 -0.23381136E+00  0.14897207E-01 -0.29369402E+00  0.21109746E+00
 -0.18685365E+00 -0.38392194E-01  0.10634160E+00 -0.28300032E-02
  0.66435995E-03 -0.47440806E+00 -0.11250496E+01 -0.27856827E+00
 -0.13569554E+01  0.21064770E+00 -0.44342969E-01  0.76229990E-01
 -0.24290405E-01 -0.11261434E+00  0.10018148E+01  0.22767542E+00
 -0.75611055E-01 -0.59486091E+00 -0.14215126E+01 -0.24381904E+00
 -0.25383967E+00  0.49857941E-01 -0.13947743E+00 -0.18549798E+00
 -0.21002913E+00 -0.15347000E-01 -0.16834819E+00  0.21803892E+00
  0.20929642E+00 -0.10061080E+00 -0.31904507E-01 -0.28207505E+00
  0.25608516E+00 -0.18180054E+00  0.42851415E+00 -0.17312264E+00
 -0.17903682E-01  0.86439610E-01 -0.80150060E-01  0.17098185E-01
 -0.30419683E-01  0.51279235E+00  0.15700253E+01  0.14896683E+00
  0.12490702E+01 -0.17830938E+00  0.75656474E-01 -0.44224095E-01
 -0.61300099E-01  0.12280393E+00 -0.14596167E+01 -0.35159820E+00
  0.27934027E+00  0.59198815E+00  0.11541491E+01  0.17868274E+00
  0.44150433E+00 -0.87764323E-01  0.17973500E+00 -0.24559207E-01
  0.12929834E-01  0.68207048E-02 -0.12768010E-01 -0.38065603E-02
  0.26851540E-01 -0.10830906E-01  0.77535986E-03 -0.17365512E-02
 -0.15774000E-01 -0.33989731E-01 -0.11249689E-01  0.58662519E-02
 -0.10439690E-01  0.19332499E-02  0.34207720E-01 -0.10329138E-01
 -0.22380955E-02  0.55513062E-01  0.53344566E-01  0.27011270E-01
 -0.84630370E-01  0.11442304E-01  0.11869610E-01  0.18336914E-01
  0.21410545E-02  0.52863397E-02  0.21707222E-01 -0.38661319E-02
 -0.25270687E-01 -0.34020606E-01 -0.14334359E-02 -0.38540119E-02
  0.28737670E-01  0.37115016E-02 -0.18286736E-02 -0.17681255E-02
 -0.14221156E+00 -0.59075002E-01  0.19836433E-01 -0.76047634E-02
 -0.12995809E+00 -0.11560405E+00 -0.16809881E-01  0.35188206E-01
  0.23344198E-01  0.10418749E+00 -0.43988552E-01 -0.21166107E-01
 -0.33218439E-02  0.14282972E+00 -0.15798102E+00  0.98103173E-02
  0.10149174E-01 -0.20782378E-01 -0.12256940E-01  0.90859644E-02
  0.14533855E-01 -0.24522969E-02  0.11254709E-01  0.13583390E-02
  0.43356489E-01  0.26643330E-02 -0.14128674E-01  0.47900598E-02
 -0.10882851E-01 -0.47548078E-02 -0.53821984E-02  0.31365617E-02
  0.12613773E-01 -0.60953349E-02  0.45044255E-01  0.63900828E-01
 -0.59823166E-02  0.71507203E-02 -0.16160239E-01 -0.33681545E-01
 -0.40392955E-02  0.60944888E-02  0.60271841E-01  0.34214549E-01
  0.23164378E-01 -0.68351328E-01  0.12046548E-01  0.31958293E-01
  0.36123709E-02 -0.11482013E-01 -0.12627609E-01 -0.46289045E-01
  0.64354002E-01  0.10392379E-02 -0.16863159E-02  0.73957364E-02
 -0.10698939E-02 -0.64807981E-02  0.99908598E-02  0.22006980E-02
 -0.50359704E-02 -0.14203114E-02  0.12199912E-01  0.20179288E-01
 -0.62138620E-02  0.78815632E-02 -0.74640582E-02  0.73885922E-02
  0.22004370E-02  0.85453279E-02  0.76826178E-02  0.31520715E-02
 -0.12767009E-02  0.30879313E-02  0.64275493E-02 -0.43601133E-02
  0.98584704E-02  0.17043861E-02  0.84848665E-02  0.36111211E-02
 -0.43704286E-02 -0.78293349E-03 -0.17360970E-01 -0.11529317E-02
  0.11252891E-01 -0.21595629E-02 -0.14455176E-02  0.98986871E-04
  0.87585188E-02  0.26772802E+01 -0.86198859E-02  0.94552226E-02
  0.55961572E-02  0.43859929E-02  0.41296370E-02  0.46669282E-02
 -0.20577968E-02 -0.24387248E-03 -0.65158486E-01  0.74515760E-01
  0.72828352E-01  0.12489908E-01  0.58226585E-02 -0.11427455E-01
 -0.15949465E-01 -0.65154098E-02  0.17882378E-02  0.12957152E+01
  0.13960779E+00 -0.44050533E-01 -0.51063329E-01 -0.63741863E-01
 -0.59596479E-01 -0.53228300E-01  0.46188690E-01  0.11657927E-01
 -0.15501004E+00 -0.51885808E+00 -0.24664450E+00 -0.34158926E-01
 -0.38116846E-01  0.12921121E-01  0.49244046E-01  0.17124632E-01
 -0.53521991E-02 -0.20537577E+01 -0.26769561E+00  0.49208440E-02
  0.11124681E+00  0.16032118E+00  0.16892999E+00  0.16521209E+00
 -0.12701941E+00 -0.60623229E-01  0.17818429E+00  0.42037153E+00
  0.23076218E+00  0.26306635E-01  0.27854430E-01 -0.14802126E-02
 -0.40314917E-01 -0.73871394E-02  0.24690886E-02  0.82360959E+00
  0.18576212E+00  0.74848413E-01 -0.66371381E-01 -0.10588891E+00
 -0.11814052E+00 -0.11794991E+00  0.87646544E-01  0.56451134E-01
  0.19192191E-01 -0.34562641E+00 -0.26493758E+00  0.78390092E-02
 -0.45823753E-02  0.45295572E-03  0.74164458E-02 -0.11921157E-02
  0.17643603E-02  0.59155165E-04  0.28991437E+00 -0.32774389E+00
 -0.21361131E-01  0.55374275E-02  0.53592431E-02 -0.18224832E-01
 -0.22406343E-02  0.48251487E-02  0.43235645E-02  0.13838613E+00
  0.46312857E-01  0.21590928E-01  0.16815718E-01 -0.19970588E-01
  0.64824097E-04 -0.19745342E-03  0.47364239E-01  0.35681468E-01
  0.49083740E-01  0.10480714E+00  0.58407630E-02  0.63248575E-02
  0.33869774E-02 -0.22746570E-01  0.86412355E-02  0.40659290E-01
 -0.36743331E+00  0.11957970E+01  0.91784447E+00  0.13865000E+00
 -0.27913701E-01 -0.31462729E-01 -0.16293772E-01  0.48463605E-01
 -0.73108386E-03 -0.61130714E+00 -0.93153489E+00  0.12322998E+01
  0.17962565E+00  0.92122070E-02 -0.88324785E-01  0.12294370E+00
 -0.67933202E-01 -0.18161766E-01  0.24850304E+00 -0.11966048E+01
 -0.56054062E+00 -0.38083974E-01 -0.12794179E+00  0.15602165E+00
 -0.32316101E+00  0.64251304E-01 -0.52134228E+00  0.38644767E+00
  0.52516818E+00 -0.71278834E+00 -0.22031006E+00  0.48846070E-01
 -0.63622057E-01  0.20911931E+00  0.87847173E-01 -0.20944718E+00
  0.10246782E+01 -0.12937897E+01 -0.40522784E+00 -0.58681500E+00
  0.13400626E+00  0.13890813E+00  0.50930057E-01 -0.12004628E-01
 -0.18637219E-01  0.22995975E+01 -0.29405493E+00 -0.19752225E+01
 -0.36606321E+00 -0.36992472E-01  0.18337315E+00 -0.16064256E+00
  0.12423855E+00  0.50655343E-02 -0.79235858E+00  0.22702663E+01
  0.19082404E+01  0.38968597E-01  0.33631071E-01 -0.34791511E+00
  0.11422634E+01 -0.18621103E+00  0.13048162E+01 -0.16866663E+01
 -0.17086962E+01  0.15004873E+01  0.64295954E+00  0.89812338E-01
  0.19795392E+00 -0.47849473E+00 -0.32040602E+00  0.35970521E+00
 -0.68489265E+00  0.76091522E+00  0.12355459E+00  0.44687080E+00
 -0.14212960E+00 -0.13827264E+00 -0.91967396E-02 -0.65421760E-01
  0.32495584E-01 -0.19574795E+01  0.92517078E+00  0.13603249E+01
  0.23316287E+00 -0.27497090E-01 -0.11032373E+00  0.18738518E-01
 -0.33233728E-01 -0.10697253E-01  0.59273267E+00 -0.12416373E+01
 -0.19759160E+01  0.18526610E-01  0.10760015E+00  0.19402064E+00
 -0.95974118E+00  0.11718221E+00 -0.88802701E+00  0.15903206E+01
  0.16918584E+01 -0.10219688E+01 -0.45557451E+00 -0.17555869E+00
 -0.13787276E+00  0.30494553E+00  0.23491567E+00 -0.17701098E+00
 -0.17107017E-01 -0.11062064E-01  0.93461685E-02  0.72881281E-01
 -0.11495991E+00 -0.24580231E-02 -0.34615423E-02 -0.27623498E-02
 -0.68666786E-02 -0.95973685E-02 -0.17075190E-01  0.91627240E-02
  0.10242629E+00  0.92916191E-01  0.24848133E-02 -0.11218094E-01
 -0.55938447E-02  0.10607604E-03  0.10907738E+00  0.13264811E+00
  0.73107123E-01  0.13814706E+00  0.24720402E-01  0.25445610E-01
 -0.19353468E-01 -0.68268133E-03  0.79990216E-02  0.44637099E-02
  0.49218759E-01 -0.18194417E-01  0.33405840E-01  0.20319276E+00
  0.36236916E-01  0.17274112E-01 -0.63722837E-02  0.33721287E-01
  0.25666660E-01  0.92364073E-01 -0.91084361E-01 -0.36218083E+00
  0.19792330E+00 -0.52057374E-01  0.40467951E-01 -0.31956334E-01
  0.12260312E+00 -0.15529650E+00  0.11941779E+00 -0.13577777E+00
 -0.17587662E+00 -0.45683962E+00 -0.65770686E-01  0.69410920E-01
 -0.18389065E-01  0.85385442E-02 -0.37895924E+00 -0.73540914E+00
 -0.56422461E-01 -0.47111732E+00 -0.20011032E+00 -0.17941421E-01
  0.27807336E-01  0.76329648E-01 -0.42905848E-01  0.33812633E+00
 -0.11257857E+00  0.52691780E-01  0.99168271E-02 -0.50797993E+00
 -0.69310427E-01 -0.12250752E+00  0.10490370E+00 -0.24429388E+00
 -0.96905589E-01 -0.29989797E+00  0.95130742E-01  0.83204031E-01
 -0.46254903E+00  0.10771060E+00 -0.16102757E-01  0.71079552E-01
 -0.19646353E+00  0.21520536E+00 -0.41078597E+00  0.15975517E+00
  0.48532066E+00  0.16240960E+00  0.74154317E-01 -0.57246845E-01
  0.45167182E-01 -0.30693918E-01  0.27020484E+00  0.10784187E+01
 -0.53013720E-01  0.46552581E+00  0.92620194E-01  0.51729452E-01
 -0.36019333E-01 -0.14987499E+00  0.62644899E-01 -0.55153668E+00
  0.28454649E+00  0.94641261E-01  0.93170047E-01  0.38448083E+00
  0.47209587E-01  0.20970257E+00 -0.13942526E+00  0.29898924E+00
 -0.25534304E-01  0.54413597E-02  0.14065276E-01 -0.76298034E-02
 -0.10420345E-01  0.29778400E-01 -0.41098721E-01 -0.40198043E-02
 -0.51609315E-02 -0.10902796E-01 -0.23414368E-01 -0.62101185E-02
  0.97503476E-02 -0.91798007E-02  0.33085525E-01  0.36749899E-01
 -0.47427081E-02 -0.77581662E-02  0.33572678E-01  0.60052574E-01
  0.14006684E-01 -0.36195543E-01  0.13402760E-01  0.33575904E-01
  0.35400661E-02 -0.38376541E-02  0.42043738E-02  0.25882047E-01
  0.10295447E-01 -0.20480629E-02 -0.22618543E-01 -0.37360494E-02
  0.12422180E-02  0.29957971E-01  0.19331203E-02  0.71227252E-02
  0.44606976E-01 -0.10304904E+00 -0.50200403E-01 -0.11642319E-02
  0.27468763E-02 -0.13490731E+00 -0.85447609E-01 -0.19251920E-02
  0.38483709E-01  0.11273086E-01  0.55817258E-01 -0.40558748E-01
 -0.12057238E-02  0.39492734E-02  0.10076773E+00 -0.14639936E+00
 -0.27176535E-02  0.11188756E-01 -0.19127030E-01 -0.16049713E-01
  0.92721246E-02  0.23639500E-02 -0.56997477E-03  0.52273949E-02
  0.54570334E-03  0.32571722E-01  0.92297159E-02 -0.76535936E-02
  0.41365661E-02 -0.10613390E-01  0.34963775E-02 -0.13046856E-02
  0.11616312E-02  0.74619646E-02 -0.10147393E-01  0.32333367E-01
  0.38845401E-01  0.55554290E-02 -0.41929297E-02 -0.15542837E-01
 -0.18608434E-01 -0.68834014E-02  0.12991249E-01  0.47244687E-01
  0.51083587E-01  0.33533402E-01 -0.61769702E-01  0.22310423E-01
  0.10246638E-01 -0.62199384E-02 -0.11598878E-01 -0.16985394E-01
 -0.50428759E-01  0.41603893E-01  0.17688369E-02 -0.36227440E-02
  0.84820502E-02  0.28933494E-02 -0.58887936E-02  0.68608033E-02
  0.30614503E-03 -0.15316578E-02 -0.24033545E-02  0.92781484E-02
  0.14051887E-01 -0.10239174E-01  0.53211115E-02 -0.21397618E-02
  0.44980948E-02  0.54727197E-02  0.70043909E-02  0.11711870E-01
  0.68015754E-02  0.21883962E-02  0.35151723E-02  0.67476854E-02
 -0.67525278E-02  0.54354896E-02  0.19866447E-02  0.76344423E-02
  0.59919464E-02 -0.26257581E-02 -0.48037633E-04 -0.10798142E-01
  0.56925323E-03  0.80262758E-02 -0.51455799E-03 -0.93577243E-03
 -0.71163801E-03  0.78903772E-02
