  0.63694153E+01 -0.34792226E-01 -0.74101150E-01  0.35132647E-01
  0.24849804E-01  0.11001031E-01 -0.19688884E-01  0.26043866E-01
  0.10386005E-01 -0.32306509E-02  0.13962946E-01 -0.10103379E-01
  0.18723549E-01  0.21955318E+01 -0.39681271E-02  0.18197682E+00
  0.11352259E+00 -0.31861097E+00 -0.15868060E-02  0.39689049E-01
  0.17209748E-01  0.19868957E+00 -0.80792844E-01 -0.11767739E+00
  0.12445183E+00 -0.55129856E-01  0.97781315E+01  0.63362420E-01
 -0.53614479E+00 -0.49567857E+00  0.11741467E+01 -0.63698137E+00
  0.52839708E+00 -0.11437671E+00 -0.15261203E+00 -0.13389719E+00
 -0.36991829E+00  0.11427349E+00 -0.65866756E+00 -0.32809158E+02
 -0.52905566E+00  0.56250453E+00  0.25619733E+00  0.76901016E+01
 -0.76617765E+00  0.13428245E+00 -0.12091904E+01 -0.15285414E+01
  0.67826205E+00  0.23068149E+01 -0.12790623E+01 -0.21327353E+00
 -0.58018158E+02  0.77569704E+01  0.58701000E+01 -0.37597201E+01
 -0.11486584E+02  0.50069208E+01 -0.19475279E+01 -0.26410751E+01
  0.11135998E+01  0.12512261E+00  0.17224884E+01 -0.64933646E+00
  0.42313728E+01  0.81844147E+02 -0.18177504E+02 -0.10697339E+02
  0.40396547E+01 -0.31275724E+02  0.73205338E+01 -0.39177847E+01
  0.58170767E+01  0.57865572E+01 -0.22364533E+01 -0.11624065E+02
  0.43845692E+01  0.30469100E+01  0.10854137E+03 -0.30877764E+02
 -0.10837448E+02  0.22226166E+02  0.34705902E+02 -0.13085100E+02
  0.15620651E+01  0.11406906E+02 -0.31094885E+01  0.85883933E+00
 -0.26042700E+01  0.11922541E+01 -0.10150282E+02 -0.44580307E+02
  0.79383827E+02  0.24413511E+02 -0.21338623E+02  0.50065231E+02
 -0.21513107E+02  0.15347664E+02 -0.10429509E+02 -0.11754140E+02
  0.34370356E+01  0.24936628E+02 -0.73416338E+01 -0.82282839E+01
 -0.10028138E+03  0.37588978E+02  0.43946161E+01 -0.33876648E+02
 -0.40892406E+02  0.13890780E+02  0.78339022E+00 -0.14895036E+02
  0.35314481E+01 -0.15978297E+01  0.11808844E+01 -0.71185207E+00
  0.10538705E+02 -0.50124065E+02 -0.10354133E+03 -0.18342451E+02
  0.30102615E+02 -0.34501984E+02  0.25331207E+02 -0.20694260E+02
  0.83078852E+01  0.11584895E+02 -0.26216393E+01 -0.24104065E+02
  0.61813402E+01  0.85840073E+01  0.37392715E+02 -0.14476902E+02
  0.99496174E+00  0.15965063E+02  0.16501511E+02 -0.52093725E+01
 -0.93629730E+00  0.62317781E+01 -0.14138384E+01  0.73162246E+00
  0.71325302E-01  0.48246253E-01 -0.39943352E+01  0.43037415E+02
  0.42916580E+02  0.38246315E+01 -0.13166987E+02  0.83462524E+01
 -0.10465691E+02  0.90876627E+01 -0.24948664E+01 -0.43121128E+01
  0.83627832E+00  0.86244040E+01 -0.20590620E+01 -0.31272593E+01
 -0.40967345E-01  0.18442563E+01  0.17633561E+01 -0.41515935E-01
  0.14598439E-01  0.52640401E-02  0.33678550E-01  0.18317278E-01
 -0.30224020E-01 -0.20597538E-01  0.24734344E-01 -0.10589097E-01
  0.24328355E-01 -0.22360490E+00 -0.19206476E+01  0.18999892E+01
 -0.99210799E-01  0.13044930E-01  0.23915390E-01  0.10539089E-01
  0.34584552E-02  0.12267413E-01  0.57058185E-02  0.42165183E-02
  0.10772910E-01 -0.26614875E-01 -0.84906542E+00  0.15865498E+01
  0.22927694E+01 -0.33673313E+00  0.19166988E+00  0.64818418E+00
  0.42091948E+00 -0.16618840E+00  0.78511834E-01 -0.64768136E-01
 -0.39221168E-01 -0.89224160E-01  0.13744980E+00 -0.14338664E+01
 -0.13094720E+01  0.17051716E+01 -0.10853502E+01  0.19608438E+00
  0.16197298E+00  0.21957266E+00 -0.31434268E+00  0.37495285E+00
  0.34630172E-01 -0.90445817E-01  0.12040329E+00  0.17347546E-01
  0.52947841E+01  0.10844605E+02  0.37868404E+01 -0.10532484E+01
  0.36165705E+01 -0.88409209E+00  0.49687561E+00 -0.61486650E+00
  0.60421681E+00  0.21092276E+00 -0.32828128E+00 -0.47752506E+00
 -0.94027746E+00 -0.25222616E+01 -0.46317272E+01  0.80145836E+01
  0.24095898E+01  0.39263372E+01  0.25864679E+00 -0.13400964E+01
  0.52035743E+00  0.38246593E+00 -0.92407823E+00 -0.74844413E-01
 -0.70236462E+00  0.10894668E+00  0.22070524E+02 -0.17723101E+02
 -0.98362646E+01  0.23332727E+01  0.64828501E+01 -0.10151886E+02
 -0.41051788E+01  0.79824430E+00 -0.15293570E+01 -0.26827991E+01
  0.52764028E+00  0.14580544E+01 -0.35977666E+01  0.25647629E+02
 -0.80371380E+01 -0.18844772E+02  0.13793572E+02  0.82348639E+00
  0.21338463E+01 -0.32136981E+01  0.57288918E+01 -0.49189863E+01
  0.13956451E+01  0.25248592E+01 -0.16098523E+00 -0.32238257E+01
 -0.37831741E+02 -0.82785980E+02  0.40492920E+02  0.49759912E+01
 -0.32693497E+02  0.38788464E+01 -0.55101299E+01  0.52948971E+01
 -0.33069551E+01 -0.27049427E+01  0.15614634E+01  0.44462080E+01
  0.58480530E+01  0.43074551E+02 -0.35585449E+02 -0.63008469E+02
 -0.10148061E+02 -0.38213268E+02 -0.12484531E+01  0.11518610E+02
 -0.16986063E+01 -0.44723072E+01  0.66183815E+01  0.27471107E+00
  0.51703405E+01  0.16862419E+01 -0.12163273E+03  0.35768082E+02
  0.79624344E+02 -0.42255276E+00 -0.29189651E+02  0.46464645E+02
  0.11797403E+02 -0.35026553E+01  0.71749530E+01  0.28277510E+02
  0.89573681E-01 -0.11701195E+02  0.20683777E+02 -0.14859583E+03
  0.73930832E+02  0.46461655E+02 -0.73587769E+02 -0.38935532E+02
 -0.21367310E+02  0.22717575E+02 -0.38625607E+02  0.22611206E+02
 -0.13838291E+02 -0.19563034E+02 -0.54408703E+01  0.22669935E+02
  0.96786774E+02  0.19943216E+03 -0.22654291E+03 -0.25076120E+01
  0.99311035E+02 -0.32880907E+01  0.18322617E+02 -0.17872755E+02
  0.32761438E+01  0.10708525E+02 -0.29951105E+01 -0.12494044E+02
 -0.13923940E+02 -0.15908409E+03  0.22274886E+03  0.14706615E+03
  0.20086594E+02  0.12031584E+03 -0.89654094E+00 -0.32396164E+02
 -0.99818581E+00  0.18598757E+02 -0.17126846E+02  0.17582542E+00
 -0.13738127E+02 -0.75380640E+01  0.28013403E+03 -0.26947161E+02
 -0.30688672E+03 -0.24610764E+02  0.25527039E+02 -0.90596802E+02
 -0.53650866E+01  0.11050000E+02 -0.16220322E+02 -0.88406464E+02
 -0.52042227E+01  0.37062027E+02 -0.48078003E+02  0.34042725E+03
 -0.20572092E+03 -0.69570496E+02  0.17793367E+03  0.15674860E+03
  0.55941879E+02 -0.64308517E+02  0.11241122E+03 -0.44273407E+02
  0.41367416E+02  0.56130981E+02  0.22120148E+02 -0.57441711E+02
 -0.10435166E+03 -0.22239348E+03  0.35573291E+03 -0.10317238E+02
 -0.12436948E+03 -0.36222420E+01 -0.26919477E+02  0.25896912E+02
  0.43949404E+01 -0.15245828E+02  0.24285517E+01  0.14503663E+02
  0.14726945E+02  0.22333340E+03 -0.35747263E+03 -0.15495206E+03
 -0.19590118E+02 -0.15038438E+03  0.54151440E+01  0.37789570E+02
  0.71866355E+01 -0.28933882E+02  0.18707537E+02 -0.73916203E+00
  0.14262703E+02  0.99755716E+01 -0.29553101E+03  0.18611116E+02
  0.45680981E+03  0.50157089E+02  0.23859192E+02  0.80800888E+02
 -0.16151367E+02 -0.16563156E+02  0.17871490E+02  0.11023318E+03
  0.84442797E+01 -0.48368694E+02  0.49598923E+02 -0.32021777E+03
  0.24028612E+03  0.77732681E+02 -0.19011116E+03 -0.21534547E+03
 -0.59049301E+02  0.76389923E+02 -0.14133389E+03  0.37059875E+02
 -0.50378235E+02 -0.66598373E+02 -0.30074064E+02  0.62589401E+02
  0.41164993E+02  0.96164978E+02 -0.17758121E+03  0.96721039E+01
  0.54648762E+02  0.41163750E+01  0.14427827E+02 -0.13174431E+02
 -0.55630002E+01  0.72903714E+01 -0.63024837E+00 -0.61418171E+01
 -0.56469116E+01 -0.10944717E+03  0.17815540E+03  0.63606419E+02
  0.73619614E+01  0.64106522E+02 -0.35921400E+01 -0.15911516E+02
 -0.52352409E+01  0.14696767E+02 -0.72762303E+01  0.22202390E+00
 -0.47575579E+01 -0.41712532E+01  0.11644560E+03 -0.11094306E+02
 -0.22673260E+03 -0.28864288E+02 -0.28778976E+02 -0.27439205E+02
  0.14110432E+02  0.86871843E+01 -0.75935078E+01 -0.47815201E+02
 -0.36480932E+01  0.22022614E+02 -0.18813353E+02  0.10188475E+03
 -0.10228133E+03 -0.39122410E+02  0.73224976E+02  0.96420273E+02
  0.22319059E+02 -0.32373444E+02  0.63122814E+02 -0.10419508E+02
  0.21842422E+02  0.27861082E+02  0.13659898E+02 -0.24893921E+02
  0.17436195E-01 -0.93482256E-01 -0.10793443E+00 -0.82785118E+00
 -0.84534407E-01 -0.26766164E-03  0.16654752E-01 -0.30994600E-01
 -0.11604786E-01  0.13113018E-01 -0.68038760E-03  0.19080635E-02
  0.26341381E-01  0.13251557E-01 -0.39075937E-01  0.66035569E-01
  0.18244596E-01 -0.78173649E+00 -0.11768350E-01 -0.53608525E-02
 -0.28954308E-01  0.22645094E-01  0.34665680E-02  0.17233105E-01
  0.14634844E-01 -0.29612660E-01  0.50487894E+00  0.22164826E+00
 -0.24378800E+00 -0.20211709E+00  0.94408870E-01  0.48972869E+00
 -0.23864595E-01 -0.27299476E+00 -0.34467149E+00 -0.14131469E+00
 -0.20775776E+00 -0.61760705E-01 -0.61581098E-01  0.99109298E+00
  0.17821749E+00  0.82714498E+00 -0.94977480E+00 -0.61216384E+00
  0.36868057E+00  0.22957663E+00 -0.12434894E+00  0.49470671E-01
 -0.90065971E-02 -0.12500755E+00  0.15639450E-01 -0.57548750E-01
  0.26369982E+01  0.56819504E+00  0.27612619E+01  0.47631836E+01
  0.26233940E+01 -0.35643741E+00 -0.49008378E+00  0.86467230E+00
  0.32177621E+00 -0.11061667E+00  0.54952288E+00  0.32997727E-01
 -0.70062482E+00  0.11445436E+01 -0.10629311E+01  0.18839436E+01
 -0.18157120E+01  0.57845402E+01 -0.11576204E+00  0.76202613E+00
  0.12073851E+01  0.22669693E-01 -0.58742684E+00 -0.53316754E+00
 -0.86090750E+00  0.12829594E+00 -0.12164212E+00 -0.11267495E+00
  0.39087937E+01  0.14429274E+01  0.49848490E+01 -0.38739052E+01
  0.32264167E+00  0.28122406E+01  0.33922615E+01  0.10338421E+01
  0.14853581E+01  0.56888652E+00  0.14110202E+00 -0.83919153E+01
 -0.36753814E+01 -0.42955170E+01  0.33921528E+01  0.80299025E+01
 -0.31461637E+01 -0.15146474E+01  0.62426537E+00  0.49127713E+00
  0.91559422E+00  0.12294980E+01 -0.11871796E+01 -0.17221963E+00
 -0.10749142E+02  0.90448103E+01 -0.22625641E+02 -0.52351303E+01
  0.13716089E+02  0.13832466E+00  0.71097839E+00 -0.13742867E+01
 -0.29770534E+01 -0.49114960E+00 -0.18319702E+01  0.83288515E+00
  0.42117643E+01 -0.74518118E+01  0.20720306E+02 -0.12630376E+02
 -0.16478210E+02 -0.81918631E+01 -0.70487118E+00 -0.88454475E+01
 -0.63079481E+01 -0.16885538E+01  0.26288919E+01  0.37352054E+01
  0.57972155E+01  0.16058006E+01 -0.51203442E+01 -0.25459335E+01
 -0.16263306E+02 -0.22843132E+01 -0.19856339E+02  0.82789288E+01
 -0.49226767E+00 -0.64728532E+01 -0.86539011E+01 -0.22938890E+01
 -0.35961864E+01 -0.14950494E+01  0.24064369E+00  0.16074705E+02
  0.12596721E+02  0.77019687E+01 -0.36065147E+01 -0.19908417E+02
  0.71198816E+01  0.27998273E+01 -0.71557939E-01 -0.21365404E+01
 -0.29742060E+01 -0.35151472E+01  0.40621052E+01  0.22940130E+01
  0.13587054E+02 -0.25019396E+02  0.54193542E+02 -0.97644224E+01
 -0.52721291E+02  0.34096537E+01  0.70795673E+00 -0.32761898E+01
  0.75477505E+01  0.20922935E+01  0.12183954E+01 -0.31462877E+01
 -0.88257313E+01  0.19144424E+02 -0.55912868E+02  0.20548431E+02
  0.58517227E+02 -0.10258887E+02  0.43046951E+01  0.22909636E+02
  0.11171077E+02  0.56796513E+01 -0.34555607E+01 -0.77860570E+01
 -0.11080913E+02 -0.49921551E+01  0.50711031E+01  0.36411524E+01
  0.15481095E+02  0.27508345E+01  0.21559464E+02 -0.52467356E+01
 -0.18340141E+00  0.42208872E+01  0.59293566E+01  0.12054520E+01
  0.28709698E+01  0.10667135E+01 -0.38529623E+00 -0.73677702E+01
 -0.12092901E+02 -0.48593473E+01 -0.27885952E+01  0.14997449E+02
 -0.45441275E+01 -0.15541581E+01 -0.77496177E+00  0.20404882E+01
  0.22645693E+01  0.28346663E+01 -0.32707062E+01 -0.27267532E+01
 -0.64316149E+01  0.16303360E+02 -0.38149586E+02  0.12910196E+02
  0.42223907E+02 -0.46120901E+01 -0.76996183E+00  0.53413091E+01
 -0.56315403E+01 -0.12916851E+01  0.31741202E+00  0.23768797E+01
  0.58335037E+01 -0.17753614E+02  0.41826599E+02 -0.77663784E+01
 -0.46996098E+02  0.16903776E+02 -0.39931259E+01 -0.17180529E+02
 -0.67168841E+01 -0.45003734E+01  0.13160982E+01  0.48622332E+01
  0.64542894E+01  0.36038082E+01 -0.22608569E+00  0.22383174E-01
 -0.21983469E+00  0.38383201E-01  0.10683269E+00 -0.27958041E+00
 -0.72073120E+00 -0.13659808E-01 -0.94429441E-02 -0.40688924E-02
  0.14465627E-01 -0.12307436E-01  0.84743910E-02  0.77261627E-01
  0.52328426E-01 -0.33979189E-01  0.24548585E-01  0.15614873E+00
  0.68249083E+00 -0.32020849E+00 -0.23883097E-01  0.48189063E-01
 -0.71453033E-02  0.65714084E-02 -0.42875463E-03 -0.49787797E-02
  0.16318838E+00  0.40782076E+00 -0.13131219E+00 -0.78088105E-01
 -0.43878070E+00 -0.45414305E+00 -0.18014473E+00  0.51335119E-01
  0.92360318E-01  0.70260227E-01  0.40587511E-01  0.57136439E-01
 -0.38172573E-01 -0.32295978E+00 -0.36206935E-01  0.54615408E+00
  0.15255278E+00  0.10668568E-02  0.59954655E+00 -0.58115119E+00
 -0.14064191E+00 -0.59324689E-02  0.17862685E-02 -0.16501711E+00
 -0.68641961E-01  0.14574031E-01  0.22033205E+01 -0.42505044E+00
  0.14705458E+01  0.99113517E-01 -0.91881233E+00  0.16044205E+01
  0.17543229E+01  0.45916408E+00  0.27655857E-02 -0.15211324E+00
  0.62531829E-01  0.22174662E+00 -0.89840293E-01 -0.98237640E+00
  0.61098063E+00 -0.93203485E-01  0.24999487E+00 -0.16881294E+01
 -0.12344170E+01  0.17829294E+01  0.27928627E+00 -0.16599247E-01
  0.71338475E-01 -0.15047699E+00  0.21899360E+00  0.51836599E-01
  0.34149855E-01 -0.11778059E+01  0.41532451E+00  0.15049253E+00
  0.86920917E+00  0.51964009E+00 -0.20884302E+00  0.89135766E-01
 -0.16401219E+00 -0.20817278E+00 -0.11379713E+00 -0.21582046E+00
  0.54201890E-01  0.65804678E+00  0.50968669E-01 -0.83104891E+00
 -0.68715566E+00  0.75480461E-01 -0.84142131E+00  0.86892831E+00
  0.25009823E+00 -0.44691864E-01  0.41970614E-01  0.42782468E+00
  0.50102547E-02 -0.18369292E+00 -0.30072832E+01  0.10538675E+01
 -0.18198308E+01  0.25968856E+00  0.99997920E+00 -0.23609505E+01
 -0.17743444E+01 -0.73138213E+00  0.11850430E+00  0.35192615E+00
 -0.23847862E+00 -0.57276577E+00  0.14691013E+00  0.11595039E+01
 -0.71592593E+00  0.47009271E+00  0.22766800E+00  0.25950401E+01
  0.12390490E+01 -0.26281445E+01 -0.37698337E+00 -0.21818753E+00
 -0.15531532E+00  0.19898310E+00 -0.42630187E+00 -0.24251966E+00
  0.75564623E-01 -0.15819145E-02 -0.17070130E-01  0.62731862E-01
  0.80122411E-01 -0.19053897E-01 -0.75502833E-03  0.20281675E+00
 -0.16062939E+00 -0.61040521E-02  0.32858416E-01 -0.53751804E-02
  0.11075355E-01  0.84059775E-01 -0.26932992E-02  0.44004384E-01
 -0.30800801E-01  0.69791377E-02  0.19021638E-01 -0.30156031E-01
  0.18149000E+00  0.21475331E+00 -0.98471157E-02 -0.55861105E-02
  0.48251487E-02 -0.33545548E-02  0.15172923E+00 -0.10189055E+00
  0.25645059E-01 -0.52431297E-01 -0.31783830E-01 -0.11050272E+00
  0.11658211E-01 -0.22356764E-02 -0.46832776E+00 -0.37870400E-01
 -0.47675371E-02 -0.38657393E-01  0.74187763E-01  0.38575072E-01
 -0.21887577E+00  0.43412637E-01  0.79081833E-01  0.39201993E-01
  0.11154533E-01 -0.64383924E-01  0.39611337E+00 -0.98804720E-02
  0.39850544E-01 -0.27133226E-01  0.39764389E-01 -0.42043131E-01
 -0.27693447E-02  0.97743094E-01 -0.95391095E-01  0.11043072E-01
  0.31084711E-01 -0.40372317E-02  0.13213969E-01 -0.24805332E-01
  0.15137903E-01  0.56641243E-01  0.22465749E+00 -0.23782956E-02
  0.96832961E-03  0.56767873E-02  0.27197037E-01  0.41327935E-01
 -0.92214346E-01 -0.47889192E-01 -0.41702390E-02 -0.81137717E-02
  0.41315705E-01 -0.75267494E-01 -0.20449100E+00  0.59991557E-01
 -0.68433136E-02  0.14528460E-01  0.14191374E-01 -0.28540866E-01
  0.25324687E-01 -0.79455256E-01 -0.23113195E-01  0.44245176E-01
  0.34820780E-01 -0.90411380E-02 -0.25287878E-01  0.31344432E-02
  0.10355320E-01 -0.10612029E+00  0.21018287E-01 -0.77975765E-02
 -0.76840562E-02  0.15142567E-01 -0.22948677E-01 -0.47588389E-01
  0.11881717E-01 -0.63865602E-01  0.30425685E-01 -0.82677789E-02
  0.21936269E-01  0.12532286E-01 -0.44801794E-02 -0.13164043E+00
 -0.46902079E-01 -0.13513892E-01  0.16624620E-03 -0.26316926E-01
 -0.12186966E-02  0.28734948E-01 -0.22959081E-02  0.10504898E-01
 -0.78018634E-02  0.84232539E-02 -0.90076961E-02 -0.66834763E-02
  0.13984973E-01 -0.61138690E-01  0.11805170E-01  0.78700721E-01
  0.18015916E-01  0.28624050E-01 -0.76267421E-02 -0.46754621E-01
 -0.22486155E-02  0.15880585E-01  0.64636171E-02  0.14192481E-01
 -0.67947758E-03 -0.35506718E-01 -0.25783082E-01  0.39371260E-01
 -0.79181977E-02 -0.47959830E-02 -0.34519915E-01 -0.25952056E-01
 -0.92375092E-02  0.23945644E-01 -0.36872244E-02  0.38071223E-01
  0.14242783E-01  0.10948618E-01  0.21540880E-01 -0.42456158E-01
  0.11031416E-01  0.34051064E-01  0.57469569E-01  0.45886554E-01
  0.13773272E-01 -0.64351410E-03 -0.16607650E-01  0.18327732E-01
 -0.26219755E-02 -0.77091185E-02  0.13056586E-01 -0.54514222E-02
  0.94509640E+01  0.10107970E+00  0.95546126E-01  0.34959659E-01
 -0.25399696E-01  0.18447228E-01 -0.18753281E-01 -0.21336963E-01
  0.20273574E-01 -0.74352026E-02  0.86263977E-02 -0.19587196E-01
 -0.25863368E-02  0.17576998E+01 -0.20958440E+00  0.20107353E+00
  0.26883548E+00 -0.69596463E+00  0.10864496E+00 -0.57094645E-01
 -0.11880034E+00  0.32511491E+00 -0.73278010E-01 -0.19179016E+00
  0.55194341E-01 -0.48167195E-01  0.29966232E+02 -0.28514748E+01
 -0.27479420E+01  0.16417269E+00  0.23762665E+01 -0.24790712E+00
  0.38372584E-01  0.68017262E+00 -0.64208418E+00  0.19077408E+00
 -0.19376384E+00  0.37586832E+00  0.30274451E+00 -0.79763241E+01
  0.40185118E+01  0.27582932E+01 -0.44167328E+01  0.16556213E+02
 -0.10127516E+01 -0.14381729E-01  0.10526123E+01 -0.36751299E+01
  0.16371241E+01  0.41598482E+01 -0.55727178E+00  0.25336438E+00
 -0.15115536E+03  0.20107758E+02  0.16070602E+02 -0.69206400E+01
 -0.15509940E+02 -0.65745473E-01  0.61048579E+00 -0.44110274E+01
  0.59234343E+01 -0.19652244E+01  0.83969170E+00 -0.19654932E+01
 -0.22424841E+01 -0.51554672E+02 -0.49286880E+02 -0.15149562E+02
  0.23192856E+02 -0.80976883E+02  0.17976044E+01  0.31771953E+01
 -0.22073927E+01  0.17565582E+02 -0.79421039E+01 -0.22982224E+02
  0.20799627E+01  0.11556673E+01  0.26708887E+03 -0.49775467E+02
 -0.31839905E+02  0.28108732E+02  0.37422562E+02  0.36079817E+01
 -0.32567406E+01  0.10001911E+02 -0.17851255E+02  0.60564766E+01
 -0.76352984E+00  0.37349443E+01  0.60045547E+01  0.22564853E+03
  0.16248386E+03  0.12195728E+02 -0.51379276E+02  0.16426907E+03
  0.24047842E+01 -0.12291704E+02 -0.43176430E+00 -0.39148830E+02
  0.16007690E+02  0.51836739E+02 -0.38026705E+01 -0.54714451E+01
 -0.22505077E+03  0.46291016E+02  0.24638092E+02 -0.39034760E+02
 -0.37432156E+02 -0.72609529E+01  0.49040074E+01 -0.89484730E+01
  0.20959167E+02 -0.69502687E+01 -0.58399475E+00 -0.28382366E+01
 -0.64945631E+01 -0.28448120E+03 -0.19788374E+03  0.13808953E+02
  0.50430798E+02 -0.14956322E+03 -0.69601135E+01  0.16451904E+02
  0.45007582E+01  0.39577290E+02 -0.14559423E+02 -0.51503662E+02
  0.33227444E+01  0.67428274E+01  0.75200882E+02 -0.13670173E+02
 -0.64882298E+01  0.17861343E+02  0.13128086E+02  0.39957590E+01
 -0.23009710E+01  0.26648014E+01 -0.84337873E+01  0.26480331E+01
  0.69651747E+00  0.70226914E+00  0.24378767E+01  0.11641260E+03
  0.81135361E+02 -0.14079867E+02 -0.17968307E+02  0.50422321E+02
  0.35681407E+01 -0.73284216E+01 -0.27828979E+01 -0.14672048E+02
  0.49403858E+01  0.18719208E+02 -0.10883951E+01 -0.26159143E+01
 -0.12469147E-01  0.13936480E+01  0.20418575E+01 -0.22939935E-01
  0.33805314E-01  0.10366075E-01  0.52215002E-01 -0.36718503E-01
 -0.45215521E-01  0.20861067E-02  0.31817250E-01 -0.47385283E-02
 -0.63512921E-02 -0.79864681E-01 -0.21967115E+01  0.13169785E+01
 -0.49137101E-01  0.79261839E-01  0.56432489E-01 -0.11213575E-01
  0.39652810E-01 -0.29792653E-01  0.64580180E-02 -0.23676369E-02
  0.21759907E-01 -0.17042236E-01 -0.10706549E+01  0.23217793E+01
  0.22575026E+01 -0.52305859E+00  0.33758909E+00  0.40237913E+00
  0.70796603E+00 -0.25653309E+00  0.18688984E+00 -0.25361737E-01
  0.87322176E-01  0.24367888E+00  0.40593687E-01 -0.15108150E+00
 -0.16911288E+01  0.46142989E+00 -0.10303917E+01  0.93612778E+00
 -0.41574053E-02  0.11723829E+00 -0.15480375E+00  0.25974425E-01
 -0.10854244E+00 -0.14955419E+00  0.20788646E+00  0.12922180E+00
  0.45731859E+01  0.24417906E+02 -0.21377106E+02 -0.15830410E+00
  0.28918283E+01 -0.90342098E+00 -0.10628958E+01  0.70779806E+00
  0.28248233E+00  0.51816136E+00 -0.36014697E+00 -0.21408522E+00
  0.44734201E+00 -0.10066270E+02  0.24201612E+02  0.22228239E+02
  0.18787279E+01  0.35598916E+00 -0.81920511E+00 -0.45490569E+00
  0.21012616E+00  0.17021559E+01 -0.23625430E+00 -0.15785760E+00
 -0.44948348E+00 -0.50422311E+00  0.25363050E+02 -0.22388350E+02
 -0.88549417E+00 -0.22121561E+00  0.23813438E+01 -0.34516563E+01
 -0.12210044E+02  0.55636535E+01 -0.32453887E+01  0.19233572E+00
 -0.14384516E+01 -0.48079548E+01 -0.13344593E+01  0.43639555E+01
 -0.82982798E+01  0.11524791E+02  0.18317823E+02 -0.13572061E+02
  0.43871193E+01 -0.21051333E+01  0.19665154E+01 -0.18783904E+01
  0.23498125E+01  0.49273577E+01 -0.22936010E+01 -0.35927689E+01
 -0.33341888E+02 -0.11396943E+03  0.19362666E+03  0.21216764E+01
 -0.21863724E+02  0.87932034E+01  0.66870279E+01 -0.20778828E+01
  0.39056785E+01 -0.55137281E+01  0.73257333E+00  0.10095549E+01
 -0.58631859E+01  0.10840974E+03 -0.21727190E+03 -0.68914215E+02
 -0.21362244E+02 -0.86977644E+01  0.82116756E+01  0.49080105E+01
  0.17874564E+00 -0.12050730E+02  0.51833916E+00  0.31218393E+01
  0.36935797E+01  0.80403614E+01 -0.15367142E+03  0.11878263E+03
  0.51804722E+02  0.41489380E+02 -0.92071486E+01  0.51096482E+01
  0.64470383E+02 -0.44764999E+02  0.16702759E+02  0.28305548E+00
  0.86546431E+01  0.29645948E+02  0.80854740E+01 -0.86085339E+01
  0.41116165E+02 -0.47850403E+02 -0.11364082E+03  0.49419266E+02
 -0.27409760E+02  0.12218876E+02 -0.15123550E+02  0.17315872E+02
 -0.15716615E+02 -0.34133499E+02  0.81285315E+01  0.23876572E+02
  0.82036057E+02  0.18187782E+03 -0.55807098E+03 -0.10879263E+02
  0.61412323E+02 -0.27611141E+02 -0.19147324E+02 -0.71760738E+00
 -0.27551132E+02  0.17640093E+02 -0.56628738E-01 -0.14020642E+01
  0.21747437E+02 -0.34376416E+03  0.61911011E+03  0.88020509E+00
  0.80663330E+02  0.33479355E+02 -0.29412020E+02 -0.12201405E+02
 -0.44523087E+01  0.36756104E+02  0.16952410E+01 -0.14172467E+02
 -0.11445618E+02 -0.29532715E+02  0.39695703E+03 -0.31497388E+03
 -0.28771411E+03 -0.17258986E+03 -0.86242542E+01  0.11642607E+02
 -0.14586749E+03  0.13591986E+03 -0.39550262E+02 -0.15524071E+01
 -0.22016006E+02 -0.76522232E+02 -0.19635254E+02 -0.40375992E+02
 -0.67061462E+02  0.28259430E+02  0.29492310E+03 -0.67607613E+02
  0.62555237E+02 -0.28627243E+02  0.50263229E+02 -0.52197628E+02
  0.39175507E+02  0.90898712E+02 -0.12516281E+02 -0.61318783E+02
 -0.77070190E+02 -0.11974760E+03  0.69099878E+03  0.18479019E+02
 -0.77280106E+02  0.33186859E+02  0.23168577E+02  0.75805960E+01
  0.50765305E+02 -0.22174517E+02 -0.21018501E+00  0.45265007E+00
 -0.30652084E+02  0.42491208E+03 -0.73491577E+03  0.15072490E+03
 -0.11781620E+03 -0.46392899E+02  0.41384521E+02  0.10866575E+02
  0.84837999E+01 -0.48217789E+02 -0.58226833E+01  0.23120070E+02
  0.13756743E+02  0.40079514E+02 -0.45912549E+03  0.38094431E+03
  0.50466556E+03  0.24710139E+03  0.43194183E+02 -0.31068724E+02
  0.14789594E+03 -0.17133977E+03  0.43186550E+02  0.93547165E+00
  0.24350431E+02  0.87021637E+02  0.20689636E+02  0.12518957E+03
  0.21702744E+02  0.59070377E+02 -0.33266943E+03  0.31520338E+02
 -0.63018494E+02  0.29843796E+02 -0.66842255E+02  0.62429546E+02
 -0.40911575E+02 -0.10445174E+03  0.77937250E+01  0.66863708E+02
  0.23716265E+02  0.26841921E+02 -0.31155273E+03 -0.99036102E+01
  0.36229218E+02 -0.13366702E+02 -0.94885092E+01 -0.60028811E+01
 -0.28343122E+02  0.97320232E+01 -0.21416096E+00  0.32326192E+00
  0.14711192E+02 -0.18264752E+03  0.31139917E+03 -0.10778705E+03
  0.57750397E+02  0.20604431E+02 -0.19741058E+02 -0.31399975E+01
 -0.45069761E+01  0.22200363E+02  0.40623951E+01 -0.12418813E+02
 -0.53976030E+01 -0.18255384E+02  0.19313272E+03 -0.16603587E+03
 -0.27830493E+03 -0.11844003E+03 -0.29174131E+02  0.17652529E+02
 -0.55044983E+02  0.75791016E+02 -0.17480881E+02  0.37095243E+00
 -0.96177435E+01 -0.35863876E+02 -0.79011207E+01 -0.83767059E+02
  0.14769974E+02 -0.53073029E+02  0.13477792E+03 -0.10499870E+01
  0.24099760E+02 -0.11736702E+02  0.30020020E+02 -0.25523895E+02
  0.15339496E+02  0.43580654E+02 -0.11596680E+01 -0.26010191E+02
 -0.24157926E-01 -0.34682441E+00 -0.18939766E+00 -0.64226556E+00
  0.55502748E+00 -0.18019244E-02  0.22090345E-02 -0.17449287E-02
 -0.28906872E-01  0.43518979E-01 -0.22777419E-02  0.19499293E-01
  0.26698967E-01 -0.66926360E-01 -0.13376319E+00 -0.66897392E-01
 -0.60208142E+00 -0.70029998E+00 -0.11302372E-01  0.22896847E-01
  0.18626206E-01  0.16040899E-01  0.18582191E-01 -0.50697476E-02
  0.14439798E-01 -0.25851399E-01  0.14338861E+00 -0.20765395E+00
  0.20112066E-01 -0.19753712E+01  0.36831617E+00  0.33009917E+00
 -0.17354339E+00  0.28955997E-02 -0.41839552E+00 -0.34900643E-02
 -0.25787419E+00  0.39183501E-01  0.11534755E+00  0.57123256E+00
  0.13649094E+00  0.26264958E-01 -0.47044325E+00 -0.22277887E+01
  0.34276772E+00  0.26841480E+00 -0.31208169E+00  0.21924429E+00
 -0.73497228E-01 -0.54401506E-01  0.14796602E-01 -0.10233094E-01
  0.26954260E+01  0.43012781E+01  0.75683289E+01 -0.86731205E+01
  0.55410347E+01 -0.34549928E+00 -0.13151922E+01  0.79660070E+00
  0.91225117E+00 -0.41482767E+00  0.31972158E+00 -0.65595812E+00
 -0.98114915E-01  0.17693300E+01  0.10319414E+01  0.57046089E+01
 -0.44164991E+01 -0.76197062E+01  0.69258058E+00 -0.58791077E+00
 -0.44445020E+00  0.10734797E+01 -0.10839005E+01  0.18576832E+00
 -0.56307358E+00 -0.81509650E-01  0.19725925E+00  0.28090065E+01
  0.29866954E-01  0.65746832E+01 -0.11214924E+01 -0.20306816E+01
  0.75946403E+00  0.37662435E+00  0.41457520E+01  0.45575309E+00
  0.18497028E+01 -0.14746183E+00 -0.16188049E+01 -0.33737962E+01
 -0.32643390E+00  0.13863983E+01  0.35408859E+01  0.94330416E+01
 -0.89115310E+00 -0.36629057E+00  0.16838446E+01 -0.21706350E+01
  0.13435287E+01  0.55284905E+00 -0.85979074E+00 -0.11613750E+01
 -0.12316349E+02 -0.62260933E+01 -0.65586029E+02  0.51939072E+02
 -0.18281096E+02  0.18273878E+00  0.63747215E+01 -0.31539526E+01
 -0.72625122E+01 -0.33774593E+00 -0.64533216E+00  0.45377502E+01
 -0.94161624E+00 -0.12553593E+02  0.13752453E+02 -0.35581818E+02
  0.14409950E+02  0.47376877E+02 -0.34375095E+01  0.25728254E+01
  0.43016977E+01 -0.10728866E+02  0.57186842E+01 -0.11502295E+01
  0.40079651E+01  0.17250156E+01 -0.35611401E+01 -0.97855148E+01
 -0.59383330E+01 -0.11810491E+02 -0.76464233E+01  0.37008057E+01
 -0.16280937E+01 -0.65146512E+00 -0.10992207E+02 -0.11756468E+01
 -0.40906601E+01 -0.35428905E+00  0.46568985E+01  0.40749521E+01
 -0.54280490E+00 -0.29149284E+01 -0.16286659E+01 -0.16713776E+02
  0.47613055E+00 -0.20696535E+01 -0.19630736E+01  0.53624783E+01
 -0.44261818E+01 -0.13592386E+01  0.33461599E+01  0.42439528E+01
  0.19575256E+02 -0.26728249E+01  0.15306609E+03 -0.97623322E+02
  0.11181700E+02  0.33377399E+01 -0.11486931E+02  0.41499348E+01
  0.16440628E+02  0.37850552E+01 -0.18400376E+00 -0.10662282E+02
  0.31876295E+01  0.31439283E+02 -0.47513306E+02  0.64092300E+02
 -0.10152737E+02 -0.89982895E+02  0.79072337E+01 -0.60005236E+01
 -0.98099117E+01  0.26642687E+02 -0.94802322E+01  0.32628336E+01
 -0.80624027E+01 -0.41372290E+01  0.24437635E+01  0.10388881E+02
  0.68885050E+01  0.12287474E+02  0.17508669E+02 -0.15349627E+01
  0.13399676E+01  0.89213789E-01  0.77907591E+01  0.79130787E+00
  0.28016548E+01  0.53495371E+00 -0.36855667E+01  0.68383670E+00
  0.14101259E+00  0.12219143E+01 -0.87792892E+01  0.14048577E+02
 -0.40416885E-01  0.34328499E+01  0.43522063E+00 -0.37442033E+01
  0.36730545E+01  0.10144063E+01 -0.31850069E+01 -0.35276754E+01
 -0.11864492E+02  0.65092659E+01 -0.10362081E+03  0.60457382E+02
  0.88302031E+01 -0.48034697E+01  0.68933554E+01 -0.17215776E+01
 -0.11243499E+02 -0.31618347E+01  0.66602868E+00  0.76481519E+01
 -0.22676840E+01 -0.26041992E+02  0.39193069E+02 -0.33144817E+02
 -0.53187160E+01  0.56564880E+02 -0.62643847E+01  0.45099564E+01
  0.61439462E+01 -0.18840759E+02  0.46164675E+01 -0.28137388E+01
  0.49374666E+01  0.28067627E+01 -0.25802642E+00 -0.10362917E+00
 -0.14398944E+00  0.58753002E-01  0.12338716E+00 -0.46615657E+00
 -0.90974391E+00  0.48583630E-01 -0.38379826E-01  0.27855974E-01
  0.10477467E-02 -0.31467215E-02  0.46931058E-02  0.13942067E+00
  0.12052407E-01  0.13556784E+00 -0.54092322E-01  0.15451413E+00
  0.88882434E+00 -0.48357457E+00 -0.32771014E-01  0.11079021E-01
 -0.23551973E-01 -0.56003849E-02 -0.15953735E-01  0.25094347E-02
  0.20348471E+00  0.49829680E+00 -0.55318736E-01 -0.92830181E-01
 -0.18149966E+00 -0.54599792E+00 -0.81165326E+00  0.41849393E-01
  0.22468762E+00  0.12768606E-01 -0.45675810E-01  0.34527794E-01
  0.90832710E-01  0.19808036E+00  0.24423763E-01  0.55058855E+00
  0.96684515E-01  0.14878929E+00  0.10547438E+01 -0.62313187E+00
 -0.34745371E+00  0.50657772E-01 -0.10458726E+00 -0.26829258E-01
 -0.22105070E-01  0.96443832E-01  0.31103611E+01  0.71752518E+00
  0.43198234E+00 -0.83313757E+00 -0.53591406E+00  0.21094112E+01
  0.14961643E+01  0.52341461E+00  0.56767017E+00 -0.88358939E-01
 -0.25685966E-01 -0.62316987E-02  0.82329929E-01 -0.23380404E+01
  0.12645092E+01 -0.13486710E+01  0.41103086E+00 -0.19716948E+01
 -0.13170985E+01  0.23266771E+01  0.89183152E-01  0.99011421E+00
  0.14776289E+00 -0.96008062E-01  0.22073546E+00  0.14917376E-01
  0.83357573E-01 -0.13930922E+01  0.16632777E+00  0.31476659E+00
  0.29862195E+00 -0.63334584E-01  0.78159118E+00 -0.13982971E-01
 -0.37854111E+00 -0.40592089E-01  0.14077955E+00 -0.17048196E+00
 -0.20473444E+00 -0.39951533E+00  0.38091745E-01 -0.17263716E+01
 -0.53047776E+00 -0.42756040E-01 -0.14003086E+01  0.27357012E+00
  0.70787126E+00 -0.17673522E+00  0.21879540E+00  0.80344677E-01
 -0.11453545E+00 -0.28751439E+00 -0.55554628E+01  0.63528180E-01
  0.22511272E+00  0.16389217E+01  0.68950057E-01 -0.38856039E+01
 -0.18219575E+01 -0.12218170E+01 -0.72119129E+00  0.12372472E-01
  0.60922839E-01 -0.13905820E-01 -0.64103067E-01  0.34650528E+01
 -0.16690044E+01  0.22416811E+01 -0.33316332E+00  0.29141891E+01
  0.15945005E+01 -0.39390173E+01  0.14417326E+00 -0.18604946E+01
 -0.11784470E+00 -0.16993750E-01 -0.41759604E+00 -0.18586282E+00
  0.81547573E-02  0.49226336E-01  0.81611395E-01  0.27063416E-01
  0.56695234E-01  0.29357160E-02  0.14539907E-01  0.30828518E+00
 -0.25350040E+00  0.32837331E-01  0.15210059E-01 -0.29200681E-02
  0.44837706E-02  0.63956797E-01  0.18061157E-01  0.10958801E-01
 -0.12470477E-01  0.35997182E-02 -0.25639519E-01 -0.23812981E-01
  0.26933241E+00  0.31840920E+00 -0.11766966E-02 -0.27984949E-02
 -0.12501192E-02 -0.80634840E-02  0.14839774E+00 -0.10045363E+00
  0.11778341E-01  0.67010581E-01  0.10346639E+00 -0.71791530E-01
  0.17526032E-01  0.13578546E+00 -0.68693256E+00 -0.82893729E-01
  0.53929277E-02  0.23169662E-02  0.82021415E-01  0.72574563E-01
 -0.60684312E-01 -0.86023450E-01  0.90452909E-01  0.34990817E-01
 -0.15001754E+00 -0.22994665E-01  0.55149466E+00  0.16523848E+00
 -0.21080256E-01 -0.10785419E-01  0.24345180E-01 -0.54076158E-01
 -0.14327257E-01  0.63852847E-01 -0.25183152E-01  0.29911580E-01
  0.37023772E-01  0.14488783E-01 -0.15269485E-01 -0.60717765E-01
  0.13028532E-01  0.14004099E+00  0.26168507E+00 -0.16771071E-01
  0.91431141E-02  0.12888259E+00  0.18391636E-02 -0.29771950E-01
 -0.61108530E-01  0.42996113E-02 -0.14745309E-01 -0.18162554E-01
  0.26890339E-01 -0.88421285E-01 -0.26770896E+00  0.11803228E+00
 -0.93428344E-02  0.73491605E-02  0.42300075E-01 -0.45630772E-01
  0.12768688E-01 -0.31926125E-01  0.13576030E-01  0.21456007E-01
  0.21313628E-01 -0.25462056E-01 -0.38112123E-01 -0.38594943E-02
  0.38873561E-01 -0.10141933E+00  0.36759213E-01  0.96034110E-01
  0.24284812E-01 -0.10095996E+00 -0.96809156E-02 -0.16556034E-01
  0.69916956E-02 -0.73311746E-01  0.47385041E-01 -0.22124330E-01
 -0.81969164E-02  0.11834413E-01 -0.44802792E-01 -0.12607551E+00
 -0.29452965E-01 -0.18742384E-01 -0.76822221E-01  0.27353520E-01
  0.59363921E-02  0.14614473E-01 -0.26352968E-01 -0.18402828E-02
 -0.14121164E-01 -0.11845142E-01 -0.38414609E-02 -0.61304048E-02
 -0.21523267E-02  0.61670173E-01  0.75453222E-01  0.65484564E-02
 -0.33840731E-01  0.21260997E-01 -0.11356533E-01 -0.17962536E-02
  0.23999993E-01  0.22581512E-01 -0.91374591E-02 -0.62641106E-03
 -0.11860893E-01 -0.49161036E-01 -0.25092568E-01  0.65070152E-01
 -0.17101344E-01 -0.30995656E-01 -0.48828226E-01 -0.25985176E-01
  0.12641996E-01  0.94131008E-02  0.50771046E-01  0.10564290E-01
 -0.72512329E-02 -0.25239273E-02  0.16289363E-01 -0.34294993E-01
 -0.21341735E-01 -0.14802244E-01  0.52205998E-01  0.39956391E-01
  0.15908465E-01  0.47674957E-02  0.53186310E-02  0.79527162E-02
 -0.18043902E-01  0.74231247E-02  0.87468550E-02 -0.46856813E-02
  0.30515983E+01  0.18279374E-01  0.17321775E-01  0.13490529E-02
  0.54005980E-02 -0.12811268E-02 -0.19620713E-02  0.16095779E-02
  0.14036378E-02  0.36024821E+00 -0.26675239E-01  0.60383163E-01
  0.85761607E-01  0.32015789E-01 -0.64746402E-02 -0.23822609E-01
  0.12654252E-02  0.19042157E-01  0.84638625E+00 -0.16989470E+00
 -0.25357139E+00 -0.44812653E-01 -0.90480037E-02  0.13199284E-01
 -0.49734195E-02 -0.90144098E-01 -0.46962071E-01 -0.31312108E+00
 -0.13555598E+00 -0.11967963E+00 -0.20256715E+00 -0.13136695E+00
  0.48089348E-01  0.87422669E-01  0.93227997E-02 -0.46409301E-01
 -0.11959352E+01  0.43471065E+00  0.63000107E+00  0.10890937E+00
 -0.57202522E-01 -0.42029072E-01  0.43181811E-01  0.22912057E+00
  0.13201463E+00 -0.73961437E-01  0.12270622E+00  0.51998913E-01
  0.10816616E+00  0.11332871E+00 -0.50417315E-01 -0.68393290E-01
 -0.12005516E-01  0.23018697E-01  0.42550963E+00 -0.27673948E+00
 -0.39599013E+00 -0.66320181E-01  0.74589610E-01  0.29583042E-01
 -0.38249172E-01 -0.14549863E+00 -0.96091688E-01 -0.81040598E-02
 -0.14526182E+00 -0.32619148E+00  0.83900504E-02  0.61066784E-02
 -0.79448335E-02  0.88535771E-02  0.61606467E-02  0.44978708E-02
  0.34204829E-01  0.34175068E+00 -0.15657049E+00 -0.35750014E-02
  0.16515721E-02  0.34812365E-02 -0.10691710E-01 -0.10663674E-01
  0.23136516E-02 -0.77340782E-01  0.29641938E+00  0.46389960E-02
  0.60751550E-01  0.13668638E+00  0.73995516E-02  0.36284514E-01
  0.43617327E-01 -0.78822463E-03 -0.23608712E-01  0.67810309E-02
  0.38915449E+00 -0.11137575E+00 -0.67211330E-01  0.10261584E+00
 -0.20004436E-01 -0.96985576E-03  0.74450910E-01  0.24482937E+00
  0.68339109E+00  0.12487193E+01 -0.17763802E+00 -0.11472328E+00
  0.13915652E+00 -0.96532464E-01 -0.11791183E+00 -0.16605745E+00
 -0.76662290E+00 -0.14496020E+01  0.84100413E+00  0.16240078E+00
  0.76123059E-01 -0.33510587E-04  0.83549917E-01  0.23060144E+00
 -0.16083211E+00  0.14090070E+01 -0.13704489E+01  0.82855475E+00
  0.23537932E+00 -0.70777297E+00 -0.28288740E+00 -0.19857667E+00
 -0.45078415E+00 -0.24828870E-01  0.88282007E+00 -0.41681415E+00
 -0.20059462E+01  0.15218280E+00  0.75277686E+00 -0.67411071E+00
  0.11159575E+00 -0.46602711E-01 -0.56245166E+00 -0.76950705E+00
 -0.10647526E+01 -0.34677619E+00  0.63541669E+00  0.15894818E+00
 -0.45485392E+00  0.20325267E+00  0.27888203E+00  0.53756195E+00
  0.23074837E+01  0.57445264E+00 -0.17256486E+01 -0.20322418E+00
 -0.25591570E+00 -0.21160701E-01 -0.19882099E+00 -0.64506978E+00
  0.51714456E+00 -0.38324993E+01  0.20495994E+01 -0.12175713E+01
 -0.10217859E+01  0.12773294E+01  0.99618143E+00  0.27631152E+00
  0.99627531E+00  0.13893231E-01 -0.26958101E+01  0.34171975E+00
  0.34515674E+01  0.34862801E+00 -0.16408195E+01  0.13690853E+01
 -0.63893914E-01  0.18333472E+00  0.11947594E+01  0.52510667E+00
  0.79661417E+00 -0.27414489E+00 -0.59034503E+00 -0.29286742E-01
  0.33197421E+00 -0.11383862E+00 -0.16956960E+00 -0.43929476E+00
 -0.18387928E+01  0.63808429E+00  0.13265419E+01 -0.18234238E-01
  0.18122619E+00  0.92859901E-02  0.90937912E-01  0.46281737E+00
 -0.37837011E+00  0.27536211E+01 -0.96891510E+00  0.93679023E+00
  0.81044078E+00 -0.73057920E+00 -0.86545914E+00 -0.13849419E+00
 -0.62656611E+00  0.88995732E-02  0.20475006E+01 -0.35984868E+00
 -0.18440654E+01 -0.44248238E+00  0.98484981E+00 -0.84341449E+00
 -0.35579182E-01 -0.14597040E+00 -0.76683801E+00 -0.10489092E-01
 -0.39877072E-01 -0.26295235E-01  0.73930919E-01 -0.10012758E+00
 -0.76692924E-02  0.43066703E-02 -0.10926161E-01 -0.48446804E-02
  0.18568035E-01 -0.17637935E-01 -0.15594787E-01  0.10350186E+00
  0.84533393E-01 -0.65629520E-02 -0.97999512E-03  0.40845196E-02
 -0.18347695E-02  0.30939206E-01  0.14365977E+00  0.14420241E+00
 -0.77935576E-01  0.16382051E+00 -0.65682977E-02 -0.39891735E-01
  0.59632142E-02 -0.52234370E-01 -0.16920578E+00  0.51358782E-01
  0.32620181E-02 -0.74220717E-01  0.15272125E-01  0.58219016E-01
  0.18921616E-01  0.17532920E-01  0.32072235E-01  0.11713438E-01
  0.24454077E+00  0.22597697E+00 -0.16024733E+00 -0.13617694E+00
  0.23809746E-01  0.65214157E-01  0.66272616E-01 -0.77504396E-01
 -0.36200452E+00  0.25575504E-01 -0.46344455E-01  0.24129638E+00
 -0.14844865E+00 -0.63827991E-01  0.11078906E+00 -0.16530165E-01
 -0.12369107E-01 -0.18463314E+00 -0.74005991E+00 -0.46722335E+00
  0.24123140E+00 -0.84606242E+00  0.38615707E-01  0.21995306E+00
 -0.47678851E-01  0.23793843E+00  0.10495081E+01  0.73820174E-01
  0.17725095E-01  0.56766880E+00  0.60886065E-02 -0.12156433E+00
 -0.15492922E+00 -0.12488944E+00 -0.24417046E+00  0.22861373E-01
 -0.35652453E+00 -0.40377611E+00  0.73468506E-01  0.20436759E+00
 -0.63278258E-01 -0.14106607E+00 -0.82917631E-01  0.15102738E+00
  0.48683444E+00 -0.13043690E+00  0.14397168E+00 -0.34078664E+00
  0.98404586E-02  0.12281657E+00 -0.21639533E+00  0.21982009E-01
  0.36892843E-01  0.22279334E+00  0.97342873E+00  0.53715861E+00
 -0.29357713E+00  0.11556520E+01  0.34201700E-01 -0.19304840E+00
  0.81136636E-01 -0.24921560E+00 -0.13376598E+01 -0.14052004E+00
  0.35047200E-01 -0.92397118E+00 -0.17662609E+00 -0.17981410E-01
  0.24125862E+00  0.16264921E+00  0.29551035E+00 -0.21483744E-01
 -0.36245289E-02 -0.66329092E-02  0.25388640E-02  0.10015320E-01
  0.40678956E-01 -0.17979134E-01 -0.35519523E-02 -0.52801110E-02
  0.23592531E-02 -0.10888861E-01 -0.72885007E-02 -0.15401221E-01
 -0.82034282E-02  0.22992520E-01  0.55773426E-01  0.39712228E-02
  0.38829450E-02  0.69172211E-01  0.48700005E-01  0.27636137E-01
 -0.61428368E-01 -0.52963905E-02 -0.12855160E+00 -0.45400564E-01
  0.16215643E-02 -0.12359414E-01  0.48297945E-01 -0.49748868E-02
 -0.98275091E-03 -0.19215353E-01 -0.17720040E-01  0.45080952E-01
 -0.12306381E+00  0.50776452E-02  0.61110142E-02  0.41643444E-01
 -0.11696458E+00  0.58375958E-01  0.44971623E-01 -0.28971106E-01
 -0.11677377E+00 -0.12909585E+00  0.26876839E-01 -0.87210014E-02
 -0.27737666E-01 -0.31307798E-01 -0.67466125E-02  0.54379951E-01
 -0.14625589E-02  0.13169986E+00 -0.15068078E+00  0.17126871E-01
 -0.85981041E-02 -0.20431226E-01 -0.40790252E-02  0.63434653E-02
  0.17711803E-01  0.10949640E-01 -0.42260364E-02  0.21843894E-02
  0.74000177E-02  0.10929641E-01 -0.27122835E-01  0.13527165E-01
 -0.41228533E-02 -0.12625434E-01 -0.37137333E-02 -0.90636835E-02
  0.47530006E-02 -0.73364223E-02  0.13638128E-01  0.87972760E-01
  0.10461539E-01 -0.20852068E-01 -0.11302184E-01 -0.18262222E-01
 -0.84132291E-02 -0.51975134E-02  0.13170410E-02 -0.52717347E-01
  0.91586038E-02 -0.67112327E-01  0.20436227E-01  0.37548587E-01
 -0.96599311E-02  0.67724623E-02 -0.25683215E-02  0.61321177E-01
  0.49731396E-02  0.30659323E-03 -0.44321306E-02  0.46804585E-02
 -0.64085302E-03  0.67579332E-02  0.63220300E-02 -0.32938600E-02
 -0.14760735E-01  0.72151315E-02  0.10289572E-01  0.13664788E-01
 -0.10606595E-01 -0.77491552E-02 -0.10887925E-01  0.14865423E-01
  0.28957615E-02 -0.37721090E-02 -0.77854283E-02 -0.13292245E-01
  0.18373657E-02  0.13984729E-01  0.48237406E-02 -0.23889195E-03
  0.75594462E-05 -0.27488933E-02 -0.73596169E-02  0.46203360E-02
  0.75970143E-02 -0.96835792E-02 -0.18875450E-01 -0.29838532E-02
 -0.54170117E-02  0.12925677E-01  0.10607131E-02 -0.30239653E-02
 -0.59676538E-02  0.26920490E+01  0.11389978E-01  0.98317824E-02
  0.31620425E-02  0.71236412E-02  0.11406110E-02 -0.56722085E-02
 -0.48866015E-04  0.11990915E-03  0.32997811E+00  0.15148185E-01
  0.51400606E-01  0.34719396E-01  0.39471131E-01  0.79672039E-02
 -0.34432355E-01 -0.70640765E-03  0.12702998E-01  0.10057878E+01
 -0.11234319E+00 -0.14979780E+00 -0.79824477E-02 -0.41622274E-01
  0.64391494E-02  0.55315364E-01 -0.57274163E-01 -0.10790601E-01
 -0.18790220E+00 -0.25727236E+00 -0.12212503E+00 -0.53840321E-01
 -0.13131247E+00 -0.32435574E-01  0.12784509E+00  0.15400990E-01
 -0.22077978E-01 -0.11739054E+01  0.24142881E+00  0.30385274E+00
  0.25107425E-02  0.12746825E-01 -0.26694339E-01 -0.99654555E-01
  0.15097807E+00  0.38390014E-01 -0.10511709E+00  0.20301552E+00
  0.83070338E-01  0.77093919E-02  0.10205883E+00  0.23708316E-01
 -0.99959791E-01 -0.15592850E-01  0.25066223E-02  0.24683733E+00
 -0.11758250E+00 -0.16027445E+00  0.14066705E-02  0.35752703E-01
  0.23185333E-01  0.48781998E-01 -0.95009811E-01 -0.37437104E-01
  0.88183925E-03 -0.30879879E+00 -0.27182156E+00  0.20393899E-02
  0.69514811E-02 -0.93122534E-02  0.51981993E-02  0.39402060E-02
  0.44796318E-02  0.87271482E-02  0.28625375E+00 -0.31935704E+00
  0.52287392E-02 -0.67754062E-02  0.86630248E-02 -0.77996170E-02
 -0.60802847E-02  0.78002359E-02 -0.49862538E-01  0.26634568E+00
  0.43451969E-01 -0.30126229E-01  0.80953479E-01 -0.31576782E-01
  0.30366639E-01  0.42546976E-01  0.15590324E-01 -0.92389211E-02
  0.49252588E-01  0.31745583E+00 -0.11614789E-01 -0.22583405E-01
  0.92642069E-01 -0.35509118E-02  0.13614684E-01  0.56305062E-01
  0.99343173E-02  0.11374702E+01  0.70455754E+00  0.17588671E-01
 -0.75575411E-01  0.13827311E+00 -0.49321633E-01 -0.75004637E-01
 -0.13349944E+00 -0.42829424E+00 -0.84019768E+00  0.13067007E+01
  0.34150388E-03  0.15719561E+00 -0.40955953E-01  0.75470269E-01
  0.13132016E+00 -0.17925549E+00  0.84138429E+00 -0.15912493E+01
  0.10511798E+00  0.54206944E+00 -0.38688600E+00  0.17358600E+00
 -0.36708105E+00 -0.45672679E+00 -0.17131352E+00  0.51538002E+00
 -0.22939312E+00 -0.19646254E+01 -0.31394237E+00  0.19157244E+00
 -0.59996867E+00 -0.45292720E-01 -0.13538665E+00 -0.45756459E+00
 -0.15232114E+00 -0.15745955E+01  0.19509156E+00  0.83998501E-01
  0.52878521E-01 -0.39462087E+00  0.11502755E+00  0.21379741E+00
  0.39088184E+00  0.13416328E+01 -0.28084821E+00 -0.21697862E+01
  0.53006250E-01 -0.35013479E+00  0.56974590E-02 -0.25478339E+00
 -0.39096361E+00  0.53477621E+00 -0.23757496E+01  0.26613855E+01
  0.50327104E-01 -0.13042612E+01  0.67580843E+00 -0.25880229E+00
  0.89902419E+00  0.10861779E+01  0.29366976E+00 -0.18501281E+01
  0.81386864E-01  0.37214673E+01  0.11096134E+01 -0.27120560E+00
  0.12532758E+01  0.18778533E+00  0.33471352E+00  0.96769458E+00
  0.14908598E+00  0.10968637E+01 -0.32124096E+00 -0.12884712E+00
  0.20785199E-01  0.26191479E+00 -0.83107591E-01 -0.16051684E+00
 -0.30176711E+00 -0.10500851E+01  0.92894047E+00  0.14747008E+01
 -0.54342680E-01  0.21156454E+00  0.44004072E-01  0.19760656E+00
  0.30182552E+00 -0.39921567E+00  0.17400056E+01 -0.12493544E+01
  0.42433244E+00  0.91900015E+00 -0.38044804E+00  0.54337405E-01
 -0.64055741E+00 -0.72182894E+00 -0.13823682E+00  0.16223974E+01
 -0.39147201E+00 -0.21358538E+01 -0.86738008E+00  0.11883758E+00
 -0.81355983E+00 -0.14370237E+00 -0.23106740E+00 -0.60141891E+00
 -0.41002706E-02 -0.36998648E-01 -0.17324734E-01  0.11522980E+00
 -0.77249408E-01 -0.40560444E-02  0.70232488E-02 -0.66030957E-02
 -0.17369712E-02  0.50536208E-02 -0.27059954E-01 -0.90134069E-02
  0.70231616E-01  0.11070347E+00 -0.50629824E-02  0.32779330E-02
 -0.49949065E-03  0.14835852E-02  0.78637183E-01  0.81079356E-01
  0.11170680E+00 -0.13736878E+00  0.11822003E+00 -0.20365615E-02
  0.56556164E-03  0.83278008E-02 -0.18613596E-01 -0.28584436E-01
 -0.58529191E-02 -0.46521258E-01 -0.11188853E+00 -0.86472213E-01
  0.11980530E-01  0.47342204E-01  0.28845018E-02  0.28383439E-01
  0.11538814E-01  0.23314317E+00  0.19854648E+00 -0.54327118E+00
  0.38741905E-01  0.24814063E-02 -0.65545547E-02  0.54088686E-01
 -0.54012049E-01 -0.19324924E+00  0.67288883E-01 -0.59418738E-01
 -0.33771221E-02 -0.44705471E+00 -0.62183537E-01  0.37801318E-01
  0.20709287E-01 -0.37422135E-01 -0.37016499E+00 -0.48482886E+00
 -0.33297902E+00  0.26727724E+00 -0.59645998E+00  0.24300689E-01
 -0.60210191E-03 -0.69528699E-01  0.92760623E-01  0.19207674E+00
  0.27005577E+00  0.30531996E+00  0.62059212E+00  0.20099735E+00
  0.89472950E-01 -0.26362389E+00 -0.48994768E-01 -0.22086474E+00
  0.96757933E-02 -0.35891137E+00 -0.41006809E+00  0.39764428E+00
 -0.12385340E+00 -0.45176540E-01 -0.23520410E-01 -0.71112037E-01
  0.90213299E-01  0.28137875E+00 -0.18450230E+00  0.15791112E+00
  0.12017472E+00  0.28672832E+00  0.10803044E+00 -0.11098099E+00
 -0.24466729E-01  0.60332596E-01  0.31297666E+00  0.70864713E+00
  0.34029233E+00 -0.29005635E+00  0.79561400E+00  0.39008938E-01
  0.32641567E-01  0.97112477E-01 -0.11558539E+00 -0.27881753E+00
 -0.29964471E+00 -0.33964044E+00 -0.84683919E+00 -0.30862880E+00
 -0.19399051E+00  0.30272609E+00  0.92557371E-01  0.24453788E+00
 -0.15125609E-01 -0.41656345E-02 -0.18647785E-03  0.33162653E-02
  0.50839223E-02  0.39834607E-01 -0.29238205E-01 -0.27017528E-03
 -0.12010454E-02 -0.41408949E-02 -0.13943053E-02  0.43188073E-02
 -0.89726970E-02 -0.38272680E-02  0.31500988E-01  0.41226037E-01
  0.43756254E-02 -0.18315912E-03  0.28158754E-01  0.54722499E-01
  0.17690172E-01 -0.28583931E-01 -0.11942320E-01 -0.10031210E+00
 -0.44474874E-01  0.96164370E-03 -0.99050328E-02  0.20313948E-01
  0.83643049E-02  0.24804203E-02 -0.18918398E-02 -0.15124846E-01
  0.43693502E-01 -0.10090126E+00  0.51212204E-02  0.10049676E-02
  0.44255391E-01 -0.71331441E-01  0.36873393E-01  0.20218041E-01
 -0.17782995E-01 -0.11550904E+00 -0.89868903E-01  0.13469199E-01
 -0.11585846E-01 -0.35603975E-02 -0.43277524E-01 -0.30855780E-01
  0.36533549E-01  0.49907379E-02  0.10209155E+00 -0.10187620E+00
  0.46443976E-02  0.65317191E-02 -0.13696849E-01 -0.11126056E-01
  0.41133650E-02  0.43337829E-02  0.92311017E-02 -0.39588846E-02
  0.16066917E-02  0.65573347E-02  0.13953521E-01 -0.12618544E-01
  0.56935060E-02 -0.90064071E-02 -0.48857480E-02 -0.64519127E-02
 -0.68315417E-02  0.63782968E-02 -0.12648813E-01  0.11987504E-01
  0.40514909E-01  0.76482450E-02 -0.16679958E-01 -0.22868705E-02
 -0.15372104E-01 -0.84379911E-02  0.35069734E-02  0.13873800E-01
 -0.56473475E-01  0.20609394E-01 -0.42281467E-01  0.22169940E-01
  0.14798194E-01 -0.78803375E-02 -0.38305377E-02  0.14281858E-02
  0.57916552E-01  0.14591149E-01  0.25254386E-02 -0.38154575E-02
  0.52015889E-02 -0.14573344E-02  0.38699112E-02  0.55529508E-02
 -0.52860044E-02 -0.12854255E-01  0.48506595E-02  0.82307905E-02
  0.14202736E-01 -0.94194561E-02  0.12523372E-02 -0.89414306E-02
  0.87305941E-02  0.66426764E-02 -0.21206427E-02 -0.49932902E-02
 -0.50855689E-02  0.87064505E-02  0.80340132E-02  0.87542385E-02
 -0.17597807E-02  0.23883770E-03  0.21871652E-03 -0.43078698E-02
  0.17831495E-02  0.10356434E-01 -0.30754986E-02 -0.14237602E-01
  0.38996681E-02 -0.63463412E-02  0.10078620E-01  0.10248973E-02
  0.13287502E-04 -0.20263768E-02
