  0.60445700E+01 -0.13494895E+00  0.96523464E-01  0.30800909E-01
 -0.25691688E-02 -0.24381360E-01 -0.20869752E-01  0.36958501E-01
 -0.24559850E-01  0.99607930E-02  0.18155643E-02  0.16870747E-04
 -0.14172104E-01 -0.72683138E+00 -0.18670642E+00  0.51046336E+00
 -0.36924455E+00 -0.19951838E+00 -0.26578629E+00  0.36712724E+00
 -0.13204169E+00 -0.27474659E-02  0.22398602E-01 -0.15810436E+00
  0.48819307E-01  0.84509552E-01  0.13992860E+02  0.23779745E+01
 -0.22226193E+01  0.20291128E+01  0.90447307E+00  0.73813629E+00
  0.10136299E+01 -0.49498463E+00  0.72660750E+00 -0.77001888E+00
 -0.32229847E+00  0.19383496E+00  0.34973943E+00  0.33502454E+00
 -0.41584196E+01 -0.30603712E+01  0.73569474E+01  0.64584503E+01
  0.61389766E+01 -0.67864490E+01  0.15375271E+01  0.11104469E+01
  0.45180345E+00  0.31834459E+01 -0.39800107E+00 -0.16252373E+01
 -0.98461945E+02 -0.11804737E+02  0.13932344E+02 -0.21968887E+02
 -0.18346832E+02 -0.64648104E+01 -0.44017801E+01  0.21018791E+01
 -0.50670681E+01  0.55518351E+01  0.14706392E+01 -0.12416878E+01
 -0.32495728E+01  0.24509443E+02  0.18994965E+02 -0.48482723E+01
 -0.31010712E+02 -0.24011597E+02 -0.33442169E+02  0.34668289E+02
 -0.85968704E+01 -0.92274466E+01 -0.22783222E+01 -0.16358900E+02
  0.99501222E+00  0.78107009E+01  0.21546280E+03  0.30437609E+02
 -0.30536013E+02  0.66628876E+02  0.65871796E+02  0.18404388E+02
  0.62645350E+01 -0.42978354E+01  0.12689313E+02 -0.13794364E+02
 -0.23129454E+01  0.28023376E+01  0.10037551E+02 -0.63695545E+02
 -0.22283279E+02  0.36996841E+02  0.50817822E+02  0.28390303E+02
  0.72428009E+02 -0.71910110E+02  0.21617935E+02  0.24796766E+02
  0.37806883E+01  0.33501648E+02 -0.13203068E+01 -0.16414627E+02
 -0.21614816E+03 -0.35832672E+02  0.27470688E+02 -0.79447617E+02
 -0.83696152E+02 -0.21164886E+02 -0.25409181E+01  0.43153009E+01
 -0.12989494E+02  0.14197570E+02  0.14302778E+01 -0.27501326E+01
 -0.12051161E+02  0.50732529E+02  0.19075851E+01 -0.50831146E+02
 -0.35323669E+02 -0.81260338E+01 -0.68726379E+02  0.65579132E+02
 -0.23836716E+02 -0.26761427E+02 -0.26312618E+01 -0.30050356E+02
  0.11140528E+01  0.15877547E+02  0.83067856E+02  0.14992575E+02
 -0.86386423E+01  0.32848267E+02  0.35260712E+02  0.85520496E+01
 -0.31619912E+00 -0.16816272E+01  0.46327848E+01 -0.52116375E+01
 -0.27778077E+00  0.10079775E+01  0.49246531E+01 -0.10440205E+02
  0.58246613E+01  0.21354172E+02  0.85120945E+01 -0.24493570E+01
  0.23852112E+02 -0.21972410E+02  0.94112196E+01  0.10090175E+02
  0.65944129E+00  0.98899641E+01 -0.44724035E+00 -0.57489357E+01
 -0.63381076E-01  0.20475082E+01  0.15625849E+01 -0.13729403E-01
 -0.65938771E-01 -0.35532121E-01 -0.29464888E-02  0.79189181E-01
  0.18604731E-02  0.96583366E-02  0.30324936E-01  0.14240874E-02
 -0.19405017E-01 -0.23046063E-01 -0.14310178E+01  0.19285048E+01
 -0.16601916E-01  0.18041895E+00 -0.12310948E-01 -0.66375315E-01
  0.31838238E-01 -0.65732598E-02 -0.13759873E-01  0.18407121E-01
 -0.24185097E-01  0.10961996E-01 -0.74787438E-01  0.16353492E+01
 -0.22924948E+00  0.47504836E+00 -0.96047318E+00 -0.33705956E+00
  0.11720681E+00 -0.35202015E-01  0.46376839E+00 -0.10265652E-01
 -0.14193831E+00  0.55663772E-02  0.19628496E+00 -0.12596107E+00
  0.14582261E+01 -0.98657072E-01  0.94749093E-01  0.78419155E+00
 -0.29752415E-01 -0.19540650E+00  0.36470249E+00  0.27288210E+00
  0.13509393E+00 -0.56428377E-01 -0.11677993E+00 -0.53491343E-01
  0.19545887E+01  0.11435436E+02  0.84868221E+01  0.32103235E+00
  0.12959203E+01  0.88761163E+00  0.49820131E+00 -0.11861238E+01
 -0.71958065E-01 -0.25178081E+00 -0.12668628E+01 -0.35598647E-01
  0.32306075E+00 -0.32294741E+01 -0.95716190E+01  0.12515850E+02
  0.23365383E+01  0.91575384E-01 -0.88255310E+00  0.17265298E+01
 -0.47084528E+00  0.12570562E+01  0.15405373E+00  0.85922658E+00
  0.83317697E+00 -0.39139023E+00  0.11067982E+01 -0.20162720E+02
  0.14454756E+02 -0.86500740E+01  0.16342590E+02  0.64312344E+01
 -0.42658453E+01 -0.13463537E+00 -0.77128181E+01  0.24014206E+01
  0.39491775E+01  0.46762186E+00 -0.34915750E+01  0.46240864E+01
 -0.27222715E+02  0.80155439E+01 -0.32276535E+01 -0.17326429E+02
  0.45502672E+01  0.41100817E+01 -0.76522074E+01 -0.50376496E+01
 -0.25007751E+01  0.33137119E+00  0.32376509E+01  0.32104582E+00
  0.24788015E+01 -0.65718430E+02  0.30561617E+02  0.72700047E+01
 -0.19604416E+02 -0.72012882E+01 -0.44401312E+01  0.93486271E+01
  0.33760920E+01  0.81467509E-01  0.93344440E+01  0.74155289E+00
 -0.13300085E+01  0.34563675E+02 -0.28905012E+02 -0.76245712E+02
 -0.21742229E+02 -0.73547707E+01  0.10644204E+02 -0.10774131E+02
  0.45778418E+01 -0.11885622E+02 -0.60007954E+00 -0.11258646E+02
 -0.67847223E+01  0.38254919E+01 -0.19042892E+02  0.11207795E+03
 -0.28545286E+02  0.46980576E+02 -0.61684093E+02 -0.24524796E+02
  0.27351974E+02  0.67426038E+01  0.44498322E+02 -0.20013245E+02
 -0.25409014E+02 -0.27430830E+01  0.19376114E+02 -0.52723099E+02
  0.99575500E+02 -0.13353540E+02  0.95136633E+01  0.99035034E+02
 -0.30965118E+02 -0.18852001E+02  0.40043259E+02  0.25284653E+02
  0.14075030E+02  0.11309586E+01 -0.20960068E+02 -0.15822057E+01
 -0.48169983E+02  0.94947174E+02 -0.23541678E+03 -0.43397125E+02
  0.64458710E+02  0.22686691E+02  0.10289152E+02 -0.30886669E+02
 -0.14552165E+02  0.30687969E+01 -0.24410383E+02 -0.24599552E+01
  0.13256645E+01 -0.10717303E+03  0.22662590E+03  0.13886284E+03
  0.76127411E+02  0.35750031E+02 -0.36212978E+02  0.21812927E+02
 -0.18747753E+02  0.38481537E+02  0.29832237E+01  0.37119461E+02
  0.18805193E+02 -0.13755705E+02  0.97456589E+02 -0.27367041E+03
 -0.62144733E+02 -0.11783699E+03  0.86211746E+02  0.28845259E+02
 -0.65351257E+02 -0.25876450E+02 -0.10882458E+03  0.56715374E+02
  0.64410553E+02  0.43075619E+01 -0.45408981E+02  0.15016524E+03
 -0.12772849E+03 -0.25741730E+02 -0.16592797E+01 -0.24547108E+03
  0.70262955E+02  0.35663345E+02 -0.83696960E+02 -0.53332432E+02
 -0.35324783E+02 -0.94713173E+01  0.54111389E+02  0.49722624E+01
  0.10506150E+03 -0.35246887E+02  0.37882617E+03  0.76265472E+02
 -0.77831039E+02 -0.30161863E+02 -0.64913306E+01  0.43002579E+02
  0.21760742E+02 -0.60918570E+01  0.27057968E+02  0.25830402E+01
  0.15233258E+01  0.13615527E+03 -0.35940283E+03 -0.10190283E+03
 -0.10915963E+03 -0.63814041E+02  0.46641556E+02 -0.12899117E+02
  0.29911604E+02 -0.51161175E+02 -0.58345957E+01 -0.46785751E+02
 -0.20363264E+02  0.19093105E+02 -0.17207224E+03  0.30198877E+03
  0.17715981E+03  0.13847585E+03 -0.45248795E+02 -0.24912090E+01
  0.66965683E+02  0.35798889E+02  0.11744838E+03 -0.66378021E+02
 -0.71170654E+02 -0.11229162E+01  0.46958755E+02 -0.15008179E+03
  0.48165192E+02  0.66421722E+02 -0.11201523E+02  0.28107004E+03
 -0.61901669E+02 -0.33674408E+02  0.75491989E+02  0.52029312E+02
  0.41378735E+02  0.16554777E+02 -0.61346947E+02 -0.63890009E+01
 -0.64716995E+02 -0.60834203E+01 -0.18212560E+03 -0.42207047E+02
  0.31869566E+02  0.14135929E+02 -0.47822112E+00 -0.21003967E+02
 -0.10799577E+02  0.31178305E+01 -0.10885386E+02 -0.69965744E+00
 -0.20979681E+01 -0.62125347E+02  0.17012572E+03  0.26723661E+02
  0.53963669E+02  0.37830791E+02 -0.20305941E+02 -0.10621082E+01
 -0.15930131E+02  0.23917707E+02  0.34242952E+01  0.20282822E+02
  0.73727045E+01 -0.88406191E+01  0.97107452E+02 -0.12479256E+03
 -0.10509424E+03 -0.61543755E+02  0.48847437E+01 -0.85133734E+01
 -0.24883604E+02 -0.16887283E+02 -0.46089828E+02  0.27499296E+02
  0.28551268E+02 -0.10849848E+01 -0.17723862E+02  0.46780487E+02
  0.82450275E+01 -0.36148041E+02  0.53822308E+01 -0.12206295E+03
  0.17168350E+02  0.13732117E+02 -0.24196625E+02 -0.19565018E+02
 -0.18214310E+02 -0.86782455E+01  0.25485151E+02  0.25449457E+01
  0.95903993E-01  0.12766165E+00 -0.18699700E+00 -0.10404549E+01
 -0.33024654E-01  0.64295411E-01 -0.23013584E-01 -0.10285795E-01
  0.37326079E-01  0.31895940E-02  0.30733403E-01 -0.10633793E-01
  0.97853728E-02  0.52426517E-01 -0.93061030E-02 -0.71888275E-01
  0.19813688E+00 -0.72505486E+00 -0.19345095E-02 -0.19068211E-01
 -0.36769819E-01  0.53982814E-02 -0.14521896E-01  0.23320388E-01
 -0.12640823E-02  0.60315430E-02  0.46948260E+00  0.12817411E+01
  0.52438563E+00  0.58714247E+00 -0.23273043E+00  0.46726218E+00
 -0.28142130E+00  0.50233088E-01 -0.11847414E+00 -0.78054011E-01
 -0.36326803E-01 -0.14682148E+00  0.96850991E-01  0.68315560E+00
  0.54635304E+00  0.54994017E+00  0.64071083E+00  0.38787287E+00
  0.12569439E+00  0.33838964E+00 -0.25519842E+00 -0.18448704E+00
 -0.18360078E+00 -0.28392774E+00  0.12267494E+00  0.58491528E-01
  0.66295367E+00 -0.11465979E+01  0.44839840E+01  0.63690023E+01
 -0.21015062E+01 -0.15754128E+01  0.21561062E+00  0.82991850E+00
 -0.24949774E+00  0.12380320E+00 -0.32161883E+00 -0.23786858E+00
 -0.31155008E+00  0.14305439E+01  0.57962006E+00  0.32569950E+01
 -0.28792398E+01  0.34138975E+01 -0.71248829E+00 -0.62034968E-01
  0.14145755E+01  0.23729172E-01 -0.19871330E+00 -0.66435295E+00
  0.17309126E-01  0.12985046E-02 -0.47963362E+01 -0.89218206E+01
 -0.36218777E+01  0.90268250E+01 -0.87401474E+00 -0.29467754E+01
  0.10264589E+01 -0.11269217E+01  0.13553838E+01  0.10891485E+01
  0.17733831E+01  0.15696553E+01 -0.47471681E+00 -0.50660024E+01
 -0.33092890E+01 -0.32716265E+01 -0.14229898E+01  0.11620011E+02
  0.96331590E+00 -0.26582203E+01  0.10442992E+01  0.50223678E+00
  0.14703425E+01  0.40092282E+01 -0.53163886E+00 -0.32783002E+00
 -0.91051664E+01  0.17604078E+02 -0.22866287E+02 -0.28144233E+01
  0.20614244E+02  0.94886522E+01 -0.77871478E+00 -0.35348945E+01
  0.17768612E+01 -0.16262702E+01 -0.12231374E+00  0.21009274E+01
  0.29576998E+01 -0.74458671E+01  0.18080215E+01 -0.13265326E+02
  0.81773024E+01  0.70696673E+01  0.32722299E+01  0.41111069E+01
 -0.59407215E+01 -0.56068146E+00  0.22052250E+01  0.37547357E+01
 -0.12558270E+01  0.11403294E+01  0.10656019E+02  0.17880112E+02
  0.63293300E+01 -0.30708923E+02  0.19644452E+01  0.56080647E+01
 -0.20938635E+01  0.40487795E+01 -0.39456050E+01 -0.30156832E+01
 -0.52191610E+01 -0.42830524E+01  0.71889979E+00  0.10659559E+02
  0.14922246E+01  0.54132767E+01  0.28934114E+01 -0.37208481E+02
 -0.38359439E+01  0.57908916E+01 -0.21831959E+00  0.91132575E+00
 -0.33404293E+01 -0.10999827E+02  0.95123529E-01  0.62245464E+00
  0.21184174E+02 -0.49009293E+02  0.41135651E+02 -0.23144958E+02
 -0.44450760E+02 -0.21969938E+02  0.31099708E+01  0.57433109E+01
 -0.42183104E+01  0.41270494E+01  0.23304348E+01 -0.47546291E+01
 -0.74363670E+01  0.14705821E+02 -0.11686627E+02  0.15904524E+02
 -0.11272637E+02 -0.37194717E+02 -0.40984344E+01 -0.12301611E+02
  0.77951894E+01  0.56480533E+00 -0.55646248E+01 -0.60771260E+01
  0.43992534E+01 -0.39650047E+01 -0.80576115E+01 -0.10058566E+02
 -0.42752752E+01  0.22247023E+02 -0.14401999E+01 -0.33199692E+01
  0.17421427E+01 -0.34508293E+01  0.32978039E+01  0.24247875E+01
  0.38595333E+01  0.32630546E+01 -0.44972673E+00 -0.69929419E+01
  0.46824846E+01 -0.20134745E+01 -0.25459473E+01  0.26119642E+02
  0.29910045E+01 -0.36391466E+01 -0.93128592E+00 -0.17195292E+01
  0.21541710E+01  0.83281469E+01  0.72017050E+00 -0.27138811E+00
 -0.15138538E+02  0.36185287E+02 -0.22484390E+02  0.22932755E+02
  0.28119078E+02  0.15488615E+02 -0.30330801E+01 -0.34491425E+01
  0.28721266E+01 -0.30168858E+01 -0.23003569E+01  0.31897192E+01
  0.54570017E+01 -0.10177624E+02  0.91815348E+01 -0.54682875E+01
  0.65655260E+01  0.30150757E+02  0.12102585E+01  0.89690657E+01
 -0.31353061E+01  0.28226668E+00  0.41323023E+01  0.27218046E+01
 -0.37113197E+01  0.31892059E+01 -0.56241829E-01  0.73317051E-01
 -0.23292308E+00 -0.61917245E-01  0.11740327E+00 -0.28218538E+00
 -0.69195360E+00  0.36205132E-01  0.38509481E-01  0.25892841E-01
  0.39562065E-01 -0.88990778E-02 -0.71549118E-02  0.10465759E+00
 -0.25458544E+00 -0.65254390E-01  0.92262961E-02 -0.97085357E-01
  0.68069774E+00 -0.31799847E+00 -0.16797254E-01  0.35726082E-01
  0.86577646E-02 -0.35667919E-01  0.55345446E-02 -0.37628177E-02
 -0.15063886E+00  0.63173950E+00  0.58640521E-01 -0.11310441E+00
 -0.56205934E+00 -0.12007034E+00 -0.60520858E+00 -0.13778126E+00
  0.53372163E-01  0.55302672E-01  0.43478359E-01  0.42523559E-01
 -0.29654520E-01 -0.46249095E-01 -0.18232644E+00  0.18445110E+00
  0.11651337E+00 -0.13888019E+00  0.77584624E+00 -0.20802420E+00
 -0.27784950E+00 -0.12532073E+00 -0.95613122E-01 -0.53957444E-01
  0.21425944E-01 -0.73493491E-02  0.32895875E+00  0.57959902E+00
  0.17125006E+01  0.64916790E-01 -0.66671222E+00  0.42497212E+00
  0.10747852E+01 -0.29168385E+00 -0.33504637E-02 -0.39606754E-01
 -0.48538265E+00 -0.46966869E-01  0.79471581E-01 -0.63520765E+00
  0.35119760E+01 -0.12184792E+01  0.14708529E+00  0.32728171E+00
 -0.13452768E+01  0.91351074E+00 -0.10723859E+00 -0.46364641E+00
 -0.17759092E+00  0.33546495E-03 -0.68300061E-01  0.33596806E-01
 -0.32629794E+00 -0.10383368E+01  0.18383628E+00 -0.12193328E+00
  0.95989019E+00  0.17567474E+00  0.10174923E+01  0.54608107E+00
 -0.69135971E-01 -0.16146509E+00 -0.69958568E-01 -0.12977318E+00
  0.74624181E-01 -0.34265661E+00  0.70992494E+00 -0.20130856E+00
 -0.87979758E+00  0.27189708E+00 -0.16422271E+01  0.42830020E+00
  0.45904866E+00  0.39268953E+00  0.97692013E-01  0.53528868E-01
 -0.25272183E-02 -0.82533360E-02  0.30163246E+00 -0.75499970E+00
 -0.23318834E+01  0.28877842E+00  0.12862625E+01 -0.79786736E+00
 -0.10814677E+01  0.10795547E+00 -0.14806841E+00  0.30484810E-01
  0.60364807E+00  0.24701130E+00 -0.16554862E+00  0.75564712E+00
 -0.49911823E+01  0.25221031E+01 -0.50133264E+00 -0.11462420E+00
  0.19772404E+01 -0.17406586E+01  0.17858028E+00  0.75754690E+00
  0.32222253E+00  0.12655258E+00  0.14917497E+00 -0.11977190E+00
  0.76102793E-01 -0.43147720E-01 -0.81818521E-01  0.19644614E-01
  0.33825949E-01  0.25999684E-01  0.32359272E-01  0.29988968E+00
 -0.63901901E-01  0.23167781E-02  0.22926807E-01 -0.77330987E-02
  0.10746138E-02  0.12264739E+00  0.20447604E-01  0.59562445E-01
  0.19856850E-01 -0.11300005E+00 -0.29754139E-01 -0.44352561E-02
  0.56839380E-01  0.25084686E+00 -0.56135748E-03 -0.54703802E-02
  0.48170909E-02 -0.36291031E-02  0.24246804E-01  0.65477550E-01
  0.12209362E+00 -0.99905550E-01 -0.29400778E+00 -0.25406674E-01
  0.31711332E-01  0.17040540E+00  0.24152596E+00 -0.77344954E-01
  0.33627842E-01 -0.97614229E-02  0.20799652E-01  0.12910360E+00
  0.27060762E-01 -0.15518236E+00  0.15885317E+00  0.30369675E+00
 -0.49701218E-01 -0.10029805E+00 -0.28022027E+00  0.36929359E-02
  0.24210740E-01 -0.16487345E-01  0.94972886E-02 -0.56310664E-02
 -0.11048770E+00 -0.25132006E-01 -0.74848473E-01 -0.36955964E-01
 -0.84306858E-02  0.59861806E-03  0.43695934E-01  0.46816021E-02
 -0.12226735E-01  0.69531322E-01  0.23915982E+00 -0.52309297E-02
 -0.14996282E-01  0.29184744E-01  0.55157769E-01  0.20157384E-01
  0.30791920E-01 -0.58250558E-01 -0.56456961E-02 -0.21537557E-01
  0.28616693E-01 -0.26698606E-02 -0.25978231E+00  0.62797010E-01
  0.22548081E-02 -0.23580464E-02  0.47859613E-01 -0.17690944E-01
 -0.53106397E-02 -0.21001626E-01 -0.39911270E-02  0.21716015E-01
 -0.17059460E-01  0.28004616E-01  0.10446362E-01 -0.44645034E-02
 -0.42491476E-02 -0.13451761E+00 -0.59785275E-03 -0.11083219E-01
  0.54354642E-01 -0.40297955E-02  0.53323615E-01  0.48851687E-01
  0.93341731E-02 -0.30359661E-05 -0.13635744E-01 -0.13263460E-01
 -0.91869384E-02 -0.23183504E-01  0.10026121E-02 -0.14598797E+00
 -0.39637774E-01  0.34675907E-01 -0.13779510E-01  0.31649987E-02
  0.24430856E-01 -0.10841479E-01 -0.87321550E-02  0.24531895E-01
 -0.39002339E-02 -0.10708718E-01 -0.32987449E-01  0.29985204E-02
  0.48053185E-02  0.86180270E-01  0.39627030E-02  0.22435104E-01
  0.21348746E-01 -0.34228358E-01 -0.53658383E-03  0.33991762E-01
 -0.37611157E-01  0.23497485E-02 -0.50931573E-02  0.65411796E-03
  0.11545371E-01 -0.11957942E-02 -0.27704688E-01  0.11326194E-01
 -0.12809221E+00  0.25609737E-01 -0.43673404E-01 -0.19919192E-01
  0.57441793E-01  0.13651281E-02  0.99236444E-02  0.11110033E-02
 -0.88214837E-02  0.10099306E-01  0.23763576E-03 -0.32913532E-01
  0.35655260E-01 -0.93667448E-01  0.22362646E-01  0.35769932E-01
  0.23009188E-01  0.10751248E-01  0.21540693E-02 -0.16343425E-02
 -0.27889892E-01 -0.19826153E-01 -0.16842147E-02  0.94351284E-02
  0.89623709E+01  0.19730665E-01  0.21596248E+00  0.50009090E-01
 -0.21762834E-02 -0.36576837E-01 -0.37319519E-01  0.31727146E-01
 -0.24356846E-01  0.29576538E-01  0.85489526E-02 -0.13777472E-01
 -0.97738244E-02  0.33469999E+00 -0.24697518E+00  0.48163033E+00
 -0.35931331E+00 -0.15751719E-01 -0.13071299E+00  0.29412568E-01
 -0.13171206E+00 -0.74888945E-01 -0.31300247E-01 -0.69453955E-01
  0.31701785E-01  0.48052181E-01  0.24180008E+02 -0.59165543E+00
 -0.37481439E+01  0.27094536E+01  0.17237263E+01  0.33680841E+00
  0.12361393E+01 -0.40081000E+00  0.24777047E+00 -0.11386623E+01
 -0.26397091E+00  0.51696783E+00  0.26516545E+00 -0.45573063E+01
  0.22108459E+01 -0.33646345E+01  0.54219599E+01  0.28218365E+01
  0.23740578E+01 -0.16911584E+01  0.25113802E+01  0.21021690E+01
  0.10237396E+00  0.14552326E+01 -0.97442865E-01 -0.11147537E+01
 -0.11681602E+03  0.18470571E+01  0.18251846E+02 -0.25811155E+02
 -0.20601791E+02 -0.18826648E+01 -0.56787043E+01  0.29563885E+01
 -0.94193518E-01  0.73134322E+01  0.93215400E+00 -0.28211839E+01
 -0.22883482E+01  0.19154860E+02 -0.18602936E+02  0.20144346E+02
 -0.16414490E+02 -0.60010891E+01 -0.12694318E+02  0.97623625E+01
 -0.14265868E+02 -0.14238820E+02  0.14062832E+00 -0.69437270E+01
 -0.15784083E+00  0.63612432E+01  0.18642738E+03  0.41710634E+01
 -0.36739269E+02  0.75611099E+02  0.65239151E+02  0.62713490E+01
  0.90178194E+01 -0.86719608E+01 -0.24287517E+01 -0.17567656E+02
 -0.38892239E+00  0.58335896E+01  0.67666421E+01 -0.25843214E+02
  0.54234539E+02 -0.64408768E+02  0.10873847E+02 -0.72628431E+01
  0.26647585E+02 -0.19763273E+02  0.33570377E+02  0.35707275E+02
 -0.12532643E-01  0.12849774E+02  0.64608556E+00 -0.15312589E+02
 -0.14083353E+03 -0.12821358E+02  0.34492325E+02 -0.88502106E+02
 -0.78154579E+02 -0.92759380E+01 -0.48082018E+01  0.10566218E+02
  0.48087645E+01  0.18066010E+02 -0.13238792E+01 -0.51708679E+01
 -0.80225315E+01  0.59901590E+01 -0.64209244E+02  0.83126953E+02
  0.10725402E+02  0.23379944E+02 -0.23843412E+02  0.16165710E+02
 -0.34889954E+02 -0.37377121E+02 -0.10515051E+01 -0.10207628E+02
 -0.58196378E+00  0.16365568E+02  0.43592422E+02  0.73433657E+01
 -0.12409453E+02  0.35991272E+02  0.31727676E+02  0.46962137E+01
  0.23304205E+00 -0.45286789E+01 -0.25499392E+01 -0.67354426E+01
  0.10447702E+01  0.16423655E+01  0.32990837E+01  0.50915031E+01
  0.26708817E+02 -0.35995026E+02 -0.10378607E+02 -0.12888996E+02
  0.75558434E+01 -0.44697495E+01  0.13253450E+02  0.13915669E+02
  0.88236904E+00  0.29039440E+01  0.16834038E+00 -0.63849525E+01
 -0.26160198E+00  0.16475304E+01  0.18607444E+01  0.27880877E-01
 -0.80495954E-01 -0.39654478E-01  0.19887306E-01  0.60452133E-01
 -0.19153394E-01  0.13035006E-01  0.31249696E-01 -0.75434591E-02
 -0.15125267E-01  0.27377903E+00 -0.17763205E+01  0.15071573E+01
 -0.19758046E-01  0.10182643E+00 -0.26982676E-01 -0.23550982E-01
  0.36379888E-02 -0.36529673E-02  0.11719953E-01  0.14171905E-01
 -0.14677169E-01 -0.14988882E-02 -0.11673794E+01  0.21813784E+01
 -0.90088546E+00  0.22404639E+00 -0.33333278E+00 -0.52520949E-01
  0.29254222E+00  0.10636133E+00  0.68046272E-01  0.12188293E-02
 -0.82268119E-01 -0.86118102E-01  0.65291584E-01  0.17419060E+01
  0.69445306E+00  0.54693860E+00 -0.17051890E-01  0.58553481E+00
 -0.22795537E-01  0.11075485E+00  0.25393158E+00  0.15103638E+00
  0.17391808E+00 -0.11656548E+00 -0.77986240E-01 -0.58590692E-01
  0.73945642E+01  0.12272065E+02 -0.10930668E+02  0.13587236E+01
  0.17232161E+01  0.35481679E+00  0.61459994E+00 -0.78423458E+00
  0.48749742E+00 -0.26622629E+00 -0.94569337E+00  0.14302284E+00
  0.17925686E+00 -0.94064894E+01  0.11073937E+02  0.13409169E+02
  0.13028535E+01  0.65245140E+00  0.19972020E+00  0.22320142E+00
  0.11397734E+01  0.71284539E+00 -0.11684895E+01  0.29646003E+00
  0.81502265E+00 -0.25439864E-01  0.23263639E+02 -0.16287764E+02
  0.19715302E+02 -0.70920930E+01  0.32130175E+01  0.31002333E+01
 -0.58355951E+01 -0.65897220E+00  0.11365485E+00 -0.26643336E+00
  0.25300446E+01  0.20917065E+01 -0.21054516E+01 -0.25114744E+02
 -0.66058860E+01  0.86541386E+01 -0.41537154E-01 -0.17567032E+02
  0.47047319E+01 -0.51503760E+00 -0.63852272E+01 -0.29741335E+01
 -0.44764338E+01  0.62373561E+00  0.24865682E+01  0.47261232E+00
 -0.46814041E+02 -0.12041885E+02  0.99752289E+02 -0.64495926E+01
 -0.92173414E+01 -0.46798887E+01 -0.54955006E+01  0.61131954E+01
 -0.16522959E+01 -0.54570884E+00  0.57664261E+01 -0.13666018E+01
 -0.71777922E+00  0.84022461E+02 -0.11194760E+03 -0.39507437E+01
 -0.16203308E+02 -0.66421161E+01 -0.14821444E+00 -0.78339773E+00
 -0.83775568E+01 -0.87370195E+01  0.92152634E+01 -0.33313084E+01
 -0.74441719E+01  0.18862636E+00 -0.14273083E+03  0.62041721E+02
 -0.79482513E+02  0.51631115E+02 -0.57821947E+00 -0.19178207E+02
  0.29178070E+02  0.33035190E+01 -0.28263035E+01  0.34217317E-01
 -0.18571104E+02 -0.10850002E+02  0.14315626E+02  0.12893005E+03
 -0.33273046E+01 -0.50037964E+02 -0.18768167E+01  0.10671620E+03
 -0.27278669E+02  0.50431366E+01  0.36296219E+02  0.19505953E+02
  0.25242188E+02  0.24296875E+01 -0.16299255E+02 -0.30654261E+01
  0.11099849E+03 -0.12857597E+03 -0.27917529E+03  0.11415404E+02
  0.13686011E+02  0.19129150E+02  0.14277333E+02 -0.19621246E+02
  0.15207520E+01  0.56465178E+01 -0.13264229E+02  0.55628519E+01
  0.15896339E+01 -0.26209375E+03  0.31271338E+03 -0.18712300E+03
  0.61504059E+02  0.26230104E+02 -0.22624292E+01  0.91929603E+00
  0.19573441E+02  0.32240540E+02 -0.23829132E+02  0.96026239E+01
  0.23164410E+02 -0.11098814E+01  0.37926733E+03 -0.13912029E+03
  0.11385747E+03 -0.15078867E+03 -0.28678268E+02  0.41981735E+02
 -0.61708344E+02 -0.99502087E+01  0.10072963E+02  0.43251381E+01
  0.50344311E+02  0.20761368E+02 -0.38384720E+02 -0.31183643E+03
  0.80717453E+02  0.11177304E+03  0.91798124E+01 -0.26519116E+03
  0.57131927E+02 -0.17250914E+02 -0.80624077E+02 -0.53986404E+02
 -0.57842274E+02 -0.15444743E+02  0.40284012E+02  0.98377438E+01
 -0.10636666E+03  0.27624463E+03  0.33518628E+03 -0.90313139E+01
 -0.29404736E+01 -0.29340528E+02 -0.13130363E+02  0.27019058E+02
  0.83808237E+00 -0.92540741E+01  0.13138416E+02 -0.91429548E+01
 -0.16192188E+01  0.33913452E+03 -0.35920068E+03  0.38480005E+03
 -0.92527649E+02 -0.46624039E+02  0.41366453E+01  0.18275698E+01
 -0.17915739E+02 -0.46472931E+02  0.25177946E+02 -0.10816147E+02
 -0.29169767E+02  0.18046656E+01 -0.44847656E+03  0.16557732E+03
 -0.59701843E+02  0.19198532E+03  0.51862453E+02 -0.38352905E+02
  0.59586216E+02  0.13888143E+02 -0.13456490E+02 -0.92948990E+01
 -0.56630112E+02 -0.15786908E+02  0.44390163E+02  0.35611423E+03
 -0.13994145E+03 -0.12520426E+03 -0.78124242E+01  0.29974634E+03
 -0.48495987E+02  0.19427444E+02  0.77247574E+02  0.66220627E+02
  0.59678249E+02  0.23805573E+02 -0.41955185E+02 -0.13117630E+02
  0.34567719E+02 -0.14869554E+03 -0.14342834E+03  0.30032885E+01
 -0.36467552E+01  0.15035782E+02  0.32215374E+01 -0.13186407E+02
 -0.12452888E+01  0.43014364E+01 -0.46899471E+01  0.50963411E+01
  0.54561722E+00 -0.15541125E+03  0.14388921E+03 -0.21015964E+03
  0.47509949E+02  0.29349546E+02 -0.19194936E+01 -0.30574074E+01
  0.53069601E+01  0.22960085E+02 -0.95035105E+01  0.42254791E+01
  0.12840060E+02 -0.78551626E+00  0.19336099E+03 -0.79162148E+02
  0.28272572E+01 -0.89598587E+02 -0.26287642E+02  0.12450288E+02
 -0.21709852E+02 -0.69439921E+01  0.60890913E+01  0.54649792E+01
  0.22320848E+02  0.36850128E+01 -0.18504166E+02 -0.15068375E+03
  0.72892563E+02  0.55283630E+02 -0.76779515E+00 -0.12916336E+03
  0.13477337E+02 -0.61723804E+01 -0.26636490E+02 -0.29567841E+02
 -0.23007305E+02 -0.11395707E+02  0.15494073E+02  0.59043760E+01
  0.97768605E-01 -0.21706767E+00 -0.14598060E+00 -0.98067135E+00
  0.56929809E+00  0.43482479E-01  0.11748247E-01 -0.63081682E-02
  0.20523416E-01 -0.19572712E-01  0.17729736E-03  0.11943496E-02
  0.66722073E-02 -0.22512754E-01 -0.17544615E+00 -0.19724552E+00
 -0.56630111E+00 -0.77338606E+00 -0.35187382E-01  0.10012046E-01
 -0.27610056E-01  0.89784898E-03 -0.95248333E-03  0.29487304E-01
  0.15489022E-01  0.32603149E-02  0.90035909E+00  0.50192165E+00
  0.39231557E+00  0.72755915E+00  0.34172869E+00  0.64472872E+00
 -0.24112159E-01 -0.37124623E-01 -0.18246339E+00 -0.95317356E-01
 -0.20045061E-01 -0.81074119E-01  0.11073198E-01  0.55172008E+00
  0.20146661E+00  0.44691020E+00  0.65697372E-01  0.77415025E+00
  0.60446817E-01  0.51282352E+00 -0.15366630E+00 -0.22197445E+00
 -0.59145339E-01 -0.21178664E+00  0.11207617E+00 -0.13108961E-01
  0.10676384E+01  0.29645824E+01  0.37952478E+01 -0.78678846E+00
  0.32439947E+01 -0.16431473E+01 -0.11421099E+01  0.17130584E+00
  0.37664509E+00  0.55448914E+00  0.10976690E+00 -0.48771805E+00
 -0.32246518E+00  0.27298229E+01  0.24008119E+01  0.60759602E+01
 -0.47121973E+01 -0.16266241E+01 -0.13724279E+00 -0.14916686E+01
  0.16014090E+01  0.21585754E+00 -0.35771859E+00 -0.89440811E+00
 -0.45400912E+00 -0.29001737E+00 -0.74832034E+01 -0.29968796E+01
 -0.42970152E+01  0.20118179E+01 -0.21555853E+01 -0.44935837E+01
 -0.38260967E+00 -0.88122141E+00  0.21959438E+01  0.85298413E+00
  0.65500510E+00  0.64462608E+00  0.34080345E-01 -0.58604369E+01
 -0.17552921E+01 -0.46983767E+01 -0.19348935E+01  0.24940042E+01
  0.21718979E+01 -0.40221739E+01  0.73567528E+00  0.19161576E+01
 -0.13397837E+00  0.25529766E+01 -0.50712585E+00  0.23999062E+00
 -0.10549744E+02 -0.37017422E+01 -0.24552065E+02  0.14676773E+02
 -0.11914490E+02  0.10997478E+02  0.74938984E+01 -0.25663304E+00
 -0.35813992E+01 -0.28400991E+01 -0.93953723E+00  0.33387852E+01
  0.20984364E+01 -0.14897772E+02 -0.62908649E+01 -0.32800339E+02
  0.18528564E+02  0.12417139E+02 -0.69420958E+00  0.11475649E+02
 -0.82309341E+01 -0.28264170E+01  0.27254324E+01  0.45255299E+01
  0.22271843E+01  0.21908436E+01  0.17852585E+02  0.30649595E+01
  0.11477947E+02 -0.67365322E+01  0.28456860E+01  0.10238113E+02
  0.33093035E+00  0.40141964E+01 -0.65592403E+01 -0.24417317E+01
 -0.14772205E+01 -0.15737494E+01 -0.74066997E-01  0.15307250E+02
 -0.26185236E+01  0.12405680E+02  0.62960510E+01 -0.67733936E+01
 -0.70792398E+01  0.91405792E+01  0.88415737E-03 -0.37179439E+01
  0.90935570E+00 -0.69149537E+01  0.18560126E+00 -0.67503858E+00
  0.21599213E+02 -0.46994743E+01  0.46027313E+02 -0.36294876E+02
  0.96739960E+01 -0.24945251E+02 -0.13759645E+02 -0.24616985E-01
  0.89603739E+01  0.54308796E+01  0.24014454E+01 -0.70196066E+01
 -0.44327593E+01  0.24843399E+02  0.92978916E+01  0.56579742E+02
 -0.19334854E+02 -0.24256987E+02  0.30407267E+01 -0.25068008E+02
  0.13572435E+02  0.68599367E+01 -0.67985997E+01 -0.75372810E+01
 -0.38506784E+01 -0.46823874E+01 -0.14843638E+02  0.19837292E+01
 -0.11109136E+02  0.31957548E+01 -0.17539186E+01 -0.67461452E+01
  0.35601419E+00 -0.37653401E+01  0.55061636E+01  0.21600037E+01
  0.83115494E+00  0.11146946E+01 -0.17095935E+00 -0.12286272E+02
  0.98170996E+01 -0.81901512E+01 -0.38168240E+01  0.12576302E+01
  0.55010004E+01 -0.60531683E+01 -0.10407486E+01  0.18965902E+01
 -0.94105470E+00  0.53762960E+01  0.51917458E+00  0.65497190E+00
 -0.13637307E+02  0.65925388E+01 -0.23569534E+02  0.25342222E+02
  0.71028113E+00  0.16614395E+02  0.75715609E+01  0.19589581E-01
 -0.64481792E+01 -0.36762247E+01 -0.19363298E+01  0.46145449E+01
  0.30328979E+01 -0.13089159E+02 -0.10095705E+02 -0.30684875E+02
  0.39198732E+01  0.14732667E+02 -0.24675798E+01  0.16160904E+02
 -0.72000704E+01 -0.45575037E+01  0.50762730E+01  0.37089520E+01
  0.21473513E+01  0.29847898E+01 -0.14737676E-01 -0.25679309E-01
 -0.16136080E+00 -0.33218786E-01  0.27244410E-01 -0.47106099E+00
 -0.91915023E+00  0.38202494E-01  0.29088616E-01  0.31560925E-02
  0.18914849E-01  0.52554202E-02 -0.11544407E-02  0.72901785E-01
 -0.22339118E+00  0.53658474E-01  0.85221529E-02 -0.27125638E-01
  0.88938648E+00 -0.52879435E+00  0.87448508E-02  0.30740049E-01
  0.10852590E-01 -0.27724357E-01  0.31586986E-02 -0.96590295E-02
  0.20115216E+00  0.69436574E+00 -0.17900574E+00  0.66311002E-01
 -0.75164109E+00  0.13775498E+00 -0.21529464E+00 -0.14966124E+00
  0.16769139E+00  0.77871263E-01  0.51278982E-01  0.15873119E-01
  0.21192810E-01  0.77322781E-01 -0.42061176E-01  0.45077723E+00
  0.66685379E-01 -0.15208274E+00  0.44830185E+00 -0.12592123E+00
 -0.13366276E+00 -0.90220630E-01 -0.61910570E-01 -0.25508964E-01
  0.12957443E-01 -0.12587028E-01  0.74074906E+00  0.65904367E+00
  0.15433569E+01 -0.63742292E-02 -0.98790765E-01  0.18118401E+01
  0.15583324E+01 -0.43290377E+00 -0.20866203E+00  0.95957100E-01
 -0.65422833E-01 -0.14005327E+00 -0.20921385E-01 -0.11043863E+01
  0.32856827E+01 -0.19886180E+01  0.40116796E+00  0.26653957E+00
 -0.17676287E+01  0.24231005E+01 -0.21656232E+00 -0.57338196E+00
 -0.14849383E+00  0.14925671E+00 -0.52936438E-01  0.73655583E-02
 -0.71928322E+00 -0.94114912E+00  0.78959531E+00 -0.13111615E+00
  0.16068592E+01 -0.33002038E-01  0.42055124E+00  0.56223714E+00
 -0.28989458E+00 -0.17253458E+00  0.78965612E-02 -0.94987273E-01
 -0.70541441E-01 -0.24910378E+00  0.25402689E+00 -0.95344985E+00
 -0.80586594E+00  0.43270761E+00 -0.10406418E+01  0.31384522E+00
  0.15633456E+00  0.34068555E+00  0.12060666E+00  0.44971276E-01
  0.29588660E-01  0.46364356E-01 -0.51294971E+00 -0.29964095E+00
 -0.28561344E+01 -0.11806238E+00  0.18849920E+00 -0.34402864E+01
 -0.21050482E+01  0.34388900E+00  0.30473167E+00 -0.14386863E+00
 -0.43631759E-01  0.33641660E+00 -0.22661611E-01  0.15949916E+01
 -0.41355295E+01  0.32266245E+01 -0.85630834E+00 -0.50795478E+00
  0.28716078E+01 -0.42127285E+01  0.28837740E+00  0.93107861E+00
  0.27240241E+00 -0.13775128E+00  0.13223092E+00 -0.13103771E+00
 -0.49044989E-01 -0.24295987E-02 -0.71430206E-01  0.35413124E-01
  0.47498845E-01 -0.13454735E-01  0.98276101E-02  0.32753569E+00
 -0.18088372E+00  0.19360156E-02  0.13374139E-01 -0.94158687E-02
 -0.30937693E-02  0.55371158E-01  0.24911975E-01  0.41393064E-01
  0.39408013E-01 -0.64998388E-01 -0.18124783E-01 -0.27285462E-01
  0.16500179E+00  0.29878312E+00  0.13220962E-02 -0.14755523E-02
  0.31277379E-02  0.15555121E-03 -0.56562982E-02  0.10716919E-01
  0.58698528E-01 -0.22612128E-02 -0.11211978E+00 -0.11326516E+00
  0.88223279E-01  0.13487899E+00  0.22745983E+00 -0.64147294E-01
  0.13011376E-01 -0.15176601E-01  0.37889306E-01  0.18017764E+00
  0.76493025E-01 -0.57414532E-01 -0.15384177E-01  0.19273418E+00
 -0.67927897E-01 -0.18422922E+00 -0.22047012E+00  0.14405786E-01
  0.12134631E-01 -0.35937384E-01 -0.15340684E-02  0.19010874E-01
 -0.14448559E+00 -0.33150797E-02 -0.10132005E-01  0.44721060E-01
 -0.38510407E-02  0.65288953E-02  0.30064262E-01 -0.13620455E-01
 -0.25559586E-01  0.13974452E+00  0.27066708E+00 -0.86301868E-03
 -0.15927408E-01  0.85362434E-01  0.48635934E-01 -0.30831050E-01
  0.35901426E-02 -0.16469322E-01 -0.93949512E-02  0.62366952E-02
  0.42513688E-02  0.16225792E-01 -0.26053268E+00  0.12521905E+00
 -0.24030069E-02 -0.12820497E-02  0.42795021E-01 -0.88504672E-01
 -0.15416029E-01  0.35100665E-01  0.10118749E-01  0.25384665E-01
 -0.40251613E-02  0.18797460E-02 -0.41919947E-02 -0.62470175E-02
 -0.65072589E-02 -0.15718544E+00  0.42815138E-01  0.51770531E-01
  0.23641720E-01 -0.22212747E-01  0.52224696E-02  0.48885673E-01
  0.18276574E-01 -0.21028420E-01 -0.14288485E-01 -0.28683110E-02
  0.25293045E-03 -0.83165914E-02 -0.44567961E-01 -0.16046226E+00
 -0.36254805E-01 -0.75680137E-01  0.11980511E-01  0.15882116E-03
  0.22734884E-01 -0.10775128E-01 -0.22750692E-01  0.10671292E-01
 -0.29391658E-02 -0.48969574E-02 -0.22469329E-01  0.37602377E-02
  0.80211437E-03  0.21320252E-01 -0.17746110E-01  0.20988828E-02
 -0.17451577E-01 -0.29435145E-01  0.10905028E-01 -0.15734231E-01
 -0.13093307E-01  0.74879122E-02 -0.76296963E-02  0.12714959E-01
  0.12751132E-01  0.24891517E-02 -0.13963948E-01  0.43464810E-01
 -0.57666738E-01  0.98980144E-02 -0.56504559E-01 -0.33702858E-01
  0.28680092E-01  0.24618782E-01  0.21952301E-01  0.17210133E-01
 -0.88103265E-02  0.80375150E-02  0.10196302E-01 -0.33362068E-01
 -0.18013634E-01 -0.50624598E-01  0.88627376E-02  0.10242135E+00
  0.11714541E-01  0.93254820E-02  0.93967207E-02 -0.15307955E-01
 -0.24555841E-01 -0.17302778E-01  0.19131060E-02 -0.42232424E-02
  0.30401049E+01 -0.11382077E-01  0.13699236E-01  0.13619753E-01
 -0.15344952E-03 -0.39020012E-03  0.33493680E-02 -0.11851718E-02
  0.34948648E-03 -0.82672894E-01 -0.32174747E-01  0.38680803E-01
  0.55962004E-01  0.32362805E-03 -0.41486818E-01 -0.11401795E-01
 -0.68960893E-02  0.10805071E-01  0.14065903E+01  0.15397179E+00
 -0.18210936E+00 -0.31921721E+00 -0.54489742E-02  0.57063509E-01
  0.12826701E-01 -0.53385347E-02  0.62804590E-02  0.22763486E+00
 -0.14647669E+00 -0.14446507E+00 -0.12818098E+00  0.18414596E-01
  0.14890824E+00  0.45125451E-01  0.18452298E-01 -0.38831923E-01
 -0.28037071E+01 -0.28717345E+00  0.53387308E+00  0.77303886E+00
  0.49879473E-01 -0.18796811E+00 -0.46676476E-01 -0.11675813E-02
 -0.18786212E-01 -0.20530868E+00  0.14871512E+00  0.13572896E+00
  0.65998554E-01 -0.31058760E-01 -0.12001264E+00 -0.36234979E-01
 -0.10483884E-01  0.33103839E-01  0.15812292E+01  0.16315395E+00
 -0.34262049E+00 -0.47133771E+00 -0.53432129E-01  0.13809937E+00
  0.39644618E-01  0.98345056E-02  0.13404461E-01  0.11054383E-01
 -0.15015078E+00 -0.34573364E+00  0.15864994E-01  0.12899942E-02
  0.38709240E-02 -0.75407006E-04  0.21587808E-02  0.61787367E-02
  0.11099253E-01  0.36393243E+00 -0.14289594E+00 -0.51003993E-02
  0.82212426E-02  0.36659569E-02 -0.50246567E-02  0.64045354E-03
  0.93177743E-02 -0.18676744E+00  0.13912366E+00  0.92345774E-01
  0.45837265E-01 -0.24934012E-01 -0.26602106E-01 -0.30030530E-01
  0.49917065E-02  0.12582731E-01  0.13173366E+00 -0.10819067E+00
  0.15030783E+00 -0.23040418E-01  0.13999089E-01 -0.53261593E-02
 -0.43439616E-01 -0.90245344E-02  0.10945595E+00  0.33914678E-01
  0.47822484E+00  0.16972903E+01 -0.97674608E-01 -0.25269103E+00
 -0.44677757E-01  0.67510237E-02  0.25692279E-01 -0.82349539E-01
 -0.35780889E+00 -0.18699243E+01  0.49952665E+00  0.71142465E-02
  0.22229070E-01 -0.12980825E+00  0.70356466E-02 -0.14538261E-01
 -0.14582598E+00  0.21972475E+01 -0.59621966E+00 -0.96930659E+00
 -0.94870515E-01  0.64373899E+00  0.14172482E+00 -0.12882970E+00
  0.14451259E+00 -0.11963338E+00 -0.23363800E+00  0.16209316E+01
 -0.70229024E+00  0.12993801E+00 -0.48182804E-01  0.18711828E+00
  0.38275993E+00  0.53427987E-01 -0.70009440E+00 -0.24579668E+00
  0.24078406E-01 -0.16323547E+01 -0.19505768E+00  0.68362409E+00
  0.15810388E+00  0.11939484E+00 -0.77476732E-01  0.17349912E+00
  0.10717821E+01  0.19524432E+01 -0.70215619E+00  0.40747777E+00
 -0.14923322E+00  0.51048869E+00  0.74851751E-01 -0.32693017E-01
  0.38650313E+00 -0.58413820E+01  0.16597110E+00  0.27413237E+01
  0.22096714E+00 -0.18455600E+01 -0.18398350E+00  0.69714391E+00
 -0.38460961E+00  0.25037783E+00  0.16911910E+00 -0.42069683E+01
  0.91982210E+00 -0.53290063E+00  0.25880045E+00 -0.68226016E+00
 -0.97130626E+00  0.19385047E-01  0.14533881E+01  0.40299883E+00
 -0.48112994E+00  0.52594155E+00  0.29526752E+00 -0.43825644E+00
 -0.12281955E+00 -0.15333907E+00  0.56682955E-01 -0.86398900E-01
 -0.75084615E+00 -0.45546570E+00  0.44570702E+00 -0.53101832E+00
  0.12392123E-01 -0.47902703E+00 -0.12242782E+00  0.79856634E-01
 -0.28643292E+00  0.42676086E+01  0.75077909E+00 -0.22261820E+01
 -0.27955216E+00  0.13397522E+01  0.14111666E+00 -0.55246317E+00
  0.23521648E+00 -0.18291543E+00 -0.12076442E+00  0.32277851E+01
 -0.13160843E+00  0.44515896E+00 -0.28191566E+00  0.62046933E+00
  0.68323207E+00 -0.10502839E+00 -0.91661125E+00  0.27267989E-02
 -0.37316999E-02  0.35979014E-03  0.47388577E-03 -0.13095337E+00
  0.21076865E-03  0.52354229E-02  0.26401212E-02 -0.60893558E-02
 -0.61952621E-02  0.12154621E-02  0.40964219E-02  0.15712863E+00
  0.24770118E-01  0.38494696E-02 -0.92166439E-02  0.62270340E-03
 -0.54044831E-02  0.42403363E-01  0.16611993E+00  0.80097139E-01
  0.56755996E+00 -0.33011413E+00  0.29526915E-01 -0.65970659E-01
 -0.28990030E-01  0.46952777E-02 -0.80264270E-01  0.20948902E-01
 -0.29410381E-01  0.50466293E+00  0.66722238E+00  0.76955378E-01
 -0.33780285E-02 -0.26567906E-01  0.40409271E-01 -0.15232778E+00
  0.13101333E+00 -0.91356933E-01  0.89222491E-01 -0.36949329E-02
 -0.17322950E-01  0.55812232E-01 -0.38744360E-01  0.16779209E-01
 -0.24620676E+00 -0.79602778E-01 -0.20739436E+00 -0.15338075E+00
 -0.47849964E-01 -0.14388233E-01  0.94271958E-01 -0.29404016E-01
  0.18598408E-01 -0.18558072E+00 -0.83184242E+00  0.13150721E-01
 -0.22259932E+01  0.66283786E+00 -0.31915799E-01  0.28466690E+00
  0.21174736E+00 -0.12655889E-01  0.94725490E+00  0.19020592E+00
  0.40080428E+00 -0.13141516E+01 -0.27080829E+01 -0.34854391E+00
 -0.15705083E+00  0.14084280E+00 -0.21892305E+00  0.17485856E+00
 -0.35491323E+00  0.11176543E+00 -0.19686691E+00 -0.70896447E-01
  0.47556855E-01 -0.74512064E-01  0.51269028E-01 -0.11006739E-01
  0.36457384E+00 -0.93383693E-04  0.29480577E+00  0.35257220E+00
 -0.10449861E+00  0.26363544E-01 -0.74307747E-01  0.54344717E-01
 -0.63038349E-01  0.20447035E+00  0.11452417E+01 -0.16736257E+00
  0.20206425E+01 -0.30654341E+00  0.28216392E-01 -0.26526558E+00
 -0.28426141E+00  0.90763681E-02 -0.14910078E+01 -0.37116325E+00
 -0.24615522E+00  0.88091087E+00  0.25278473E+01  0.36680901E+00
  0.36790529E+00 -0.11417955E+00  0.26816338E+00 -0.24069043E-01
 -0.37140232E-02  0.59421249E-02 -0.14975987E-01  0.38167016E-03
  0.24848027E-01 -0.14859643E-01  0.81578479E-03 -0.90723373E-02
 -0.75797667E-02 -0.47509167E-01 -0.53818147E-02  0.15393178E-01
 -0.22171628E-01  0.20891448E-01  0.37496544E-01 -0.90530509E-03
 -0.27469555E-02  0.87826133E-01  0.61553407E-01  0.20494966E-01
 -0.68606257E-01  0.31154960E-01 -0.22373166E-01  0.19868620E-01
 -0.36711793E-02  0.80109164E-02  0.58815438E-01 -0.10893079E-02
 -0.23224901E-01 -0.16784027E-01 -0.12939299E-02 -0.17937096E-01
 -0.30362140E-01 -0.11328247E-01  0.18137723E-01 -0.83675422E-02
 -0.66944182E-01 -0.99108577E-01  0.53046625E-01  0.11491631E-02
 -0.97788632E-01 -0.19152732E+00 -0.73964265E-02  0.37721645E-01
 -0.16437825E-01  0.10426623E+00 -0.13097624E-01 -0.31341720E-01
  0.33724148E-01  0.20263119E+00 -0.17441694E+00 -0.13966217E-01
  0.81566256E-03 -0.30277977E-01 -0.14341920E-01  0.34723729E-02
  0.66115153E-02 -0.40517412E-02  0.80762729E-02  0.77816518E-02
  0.50833832E-01  0.10282874E-01 -0.26500832E-01  0.64238161E-02
 -0.28022842E-02 -0.14088667E-01 -0.54610544E-03  0.28645759E-02
  0.12587353E-01 -0.20940427E-01  0.47031794E-01  0.57847183E-01
  0.32054432E-01  0.12395523E-01 -0.61136406E-01 -0.11976908E-01
  0.27411242E-03  0.54735648E-02  0.39643612E-01  0.14503113E-01
 -0.14846101E-01 -0.43443695E-01 -0.62784292E-02  0.66622496E-01
  0.10906367E-01 -0.16276255E-01 -0.74495082E-02 -0.27881339E-01
  0.35522427E-01 -0.26395647E-02 -0.95528327E-02 -0.20187972E-02
  0.48234980E-02 -0.36433237E-02  0.73964107E-02  0.43250839E-02
 -0.13721440E-04 -0.82670292E-03  0.13747017E-01  0.26495293E-01
 -0.12389235E-01  0.13934656E-03 -0.12922279E-01  0.92590265E-02
  0.30354068E-02  0.11110846E-02  0.40769838E-02  0.33883243E-02
  0.76762331E-02  0.87840520E-02  0.22252684E-02 -0.17388513E-02
  0.65976717E-02 -0.13436445E-02  0.53181127E-02  0.17218640E-02
  0.12250469E-01  0.88767409E-02 -0.20778639E-01  0.91415532E-02
 -0.31969624E-02  0.82466059E-03  0.72336234E-02 -0.23431671E-02
  0.52077025E-02  0.27045250E+01 -0.13861432E-01  0.10853585E-01
  0.13674899E-01  0.45255939E-02  0.96232325E-04  0.28539707E-02
 -0.50630591E-04 -0.10792224E-02  0.33882730E-01  0.16726006E-01
  0.41411083E-01  0.21762999E-01  0.13571895E-01 -0.18095523E-01
 -0.13972078E-01 -0.26165762E-02 -0.44640916E-03  0.13936987E+01
  0.10243690E+00 -0.12836152E+00 -0.18260191E+00 -0.46525557E-01
  0.44762935E-01  0.57317317E-02  0.11237834E-01  0.40574856E-02
 -0.14981101E+00 -0.25437301E+00 -0.14702123E+00 -0.51582754E-01
 -0.47143348E-01  0.47940172E-01  0.27028268E-01  0.77501158E-02
 -0.80215298E-02 -0.24028521E+01 -0.13707370E+00  0.35199863E+00
  0.39832273E+00  0.85570991E-01 -0.12622128E+00 -0.67097694E-02
 -0.48906956E-01  0.55381288E-02  0.77955544E-01  0.19398201E+00
  0.13605738E+00  0.29710909E-01  0.28151931E-01 -0.32603391E-01
 -0.11237350E-01 -0.34127152E-02  0.13379141E-01  0.11976624E+01
  0.86586349E-01 -0.22247820E+00 -0.23125167E+00 -0.42487212E-01
  0.83616674E-01  0.73067652E-03  0.40582355E-01 -0.96359551E-02
  0.17483033E-01 -0.30285537E+00 -0.29345894E+00  0.99322982E-02
 -0.17893454E-02  0.10022587E-02  0.11504446E-02  0.16644032E-02
  0.72499407E-02  0.13540722E-02  0.32227379E+00 -0.29328412E+00
 -0.80812834E-02  0.39960970E-02  0.65438598E-02 -0.11646178E-01
  0.39998032E-02  0.15032204E-01 -0.36074266E-01  0.11459166E+00
  0.90131879E-01  0.35216373E-02 -0.96506737E-02 -0.11520933E-01
 -0.12881164E-01  0.99653099E-03  0.34462847E-01  0.89647539E-01
  0.63354820E-02  0.12553088E+00  0.24806120E-01  0.23215951E-01
  0.13266701E-01  0.39352663E-02  0.90735704E-02  0.86630397E-01
 -0.22010052E+00  0.76199841E+00  0.10411053E+01  0.79058170E-01
 -0.99691875E-01 -0.41243132E-01  0.57794455E-01 -0.16476741E-02
 -0.94741933E-01 -0.32839942E+00 -0.12193966E+01  0.87339061E+00
 -0.75224410E-02  0.83490193E-01 -0.14356726E+00  0.13259065E+00
 -0.44737361E-01 -0.20198126E+00  0.54963994E+00 -0.52403367E+00
 -0.74558896E+00 -0.96110046E-01  0.27973866E+00  0.15445522E-01
 -0.24832046E+00  0.65243840E-01 -0.22887568E+00 -0.19111106E-01
  0.47740993E+00 -0.63515675E+00 -0.18528543E+00 -0.21004456E+00
  0.61389267E-01  0.34061927E-01 -0.37664600E-01 -0.56488276E+00
  0.61485970E+00 -0.31153601E+00 -0.85383409E+00 -0.55827850E+00
  0.24451426E+00  0.20632701E+00 -0.12735526E+00  0.49136002E-01
  0.29886138E+00  0.12342768E+01  0.80860955E+00 -0.12855701E+01
  0.31017226E+00 -0.24868596E+00  0.44440651E+00 -0.30813736E+00
  0.23854541E-01  0.45323092E+00 -0.15821571E+01  0.43670559E+00
  0.22294598E+01  0.54407924E+00 -0.86818779E+00 -0.27222030E-02
  0.87385136E+00 -0.10560453E+00  0.39706624E+00 -0.65258813E+00
 -0.15170183E+01  0.12435971E+01  0.19180834E+00  0.70927751E+00
 -0.27004617E+00 -0.20135772E+00  0.98844647E-01  0.11511527E+01
 -0.35777092E+00 -0.10984189E+00  0.54976183E+00  0.51074892E+00
 -0.15392701E+00 -0.20111597E+00  0.95634460E-01 -0.59104063E-01
 -0.22803462E+00 -0.10545502E+01 -0.27652280E-01  0.84639686E+00
 -0.34254825E+00  0.83599448E-01 -0.39442423E+00  0.17786872E+00
  0.49440950E-01 -0.29044276E+00  0.11647865E+01  0.19355892E+00
 -0.19237442E+01 -0.51354480E+00  0.63591230E+00  0.36586218E-01
 -0.67268562E+00  0.16708907E-01 -0.21348134E+00  0.78157800E+00
  0.13963383E+01 -0.70771319E+00 -0.20638824E-01 -0.56146246E+00
  0.25822002E+00  0.18338434E+00 -0.10435091E+00 -0.70114338E+00
  0.33377009E-02 -0.85557252E-02  0.53263269E-02  0.48212934E-01
 -0.96097529E-01  0.16747258E-02  0.45310478E-02  0.21136757E-02
 -0.20766112E-02 -0.66840351E-02 -0.10856334E-01 -0.23787534E-02
  0.92386603E-01  0.68768799E-01  0.10402149E-02 -0.86118132E-02
  0.32925489E-03  0.57025021E-03  0.51790807E-01  0.13119572E+00
  0.47563076E-01  0.28507447E+00 -0.11513669E+00  0.31583644E-01
 -0.17520608E-01 -0.31817120E-01  0.82542188E-02  0.19457081E-01
  0.16882733E-01 -0.44377230E-01  0.21419051E+00  0.39532009E+00
  0.44337552E-01  0.33838250E-01 -0.26187995E-01  0.26135841E-01
 -0.13655464E+00  0.12530462E+00 -0.43442167E-01 -0.23065428E+00
  0.20435365E+00 -0.63712358E-01  0.23470284E-01 -0.50777256E-01
  0.77459808E-02 -0.15135793E+00  0.11079715E-01 -0.65361381E-01
 -0.20480008E+00 -0.31951761E+00 -0.43420333E-01  0.58943629E-01
 -0.19627888E-01 -0.11768200E-01 -0.15009117E+00 -0.68192893E+00
  0.62561333E-01 -0.10389147E+01  0.10595894E+00 -0.14849148E-01
  0.53832043E-01  0.23531131E+00 -0.12635956E-01  0.28327590E+00
  0.38813159E-01  0.31918579E+00 -0.46337992E+00 -0.14411011E+01
 -0.15281475E+00 -0.21893851E+00  0.14097039E+00 -0.14544624E+00
  0.15800917E+00 -0.34267649E+00  0.18755987E-02 -0.56562793E-01
 -0.48462972E+00  0.95949888E-01 -0.30947627E-01  0.87747693E-01
 -0.19303992E-01  0.24605584E+00 -0.13650823E+00  0.21064958E-01
  0.58473659E+00 -0.75870599E-02  0.39007965E-01 -0.65296412E-01
  0.41345578E-01 -0.19478334E-01  0.78472018E-01  0.91951138E+00
 -0.16342765E+00  0.91248029E+00  0.87954290E-02 -0.59618722E-02
 -0.40209658E-01 -0.31057966E+00  0.18426050E-01 -0.60459119E+00
 -0.10414233E-01 -0.18814395E+00  0.27712166E+00  0.13081121E+01
  0.17085785E+00  0.34071121E+00 -0.14231364E+00  0.17387938E+00
 -0.20386552E-01  0.21182615E-02  0.10177098E-01 -0.11378627E-01
 -0.98456331E-02  0.34398962E-01 -0.42581432E-01  0.34251876E-03
 -0.68609156E-02 -0.90750642E-02 -0.32029826E-01 -0.47561601E-02
  0.14946334E-01 -0.16567834E-01  0.42375125E-01  0.41583799E-01
  0.13377544E-03 -0.61774589E-02  0.45967977E-01  0.61088771E-01
  0.14942784E-01 -0.37811138E-01  0.15868820E-01  0.47008316E-02
  0.46885717E-02  0.11044604E-02  0.83790062E-03  0.33965636E-01
  0.12285839E-01 -0.15363422E-01 -0.20721937E-01 -0.11257235E-01
 -0.34942648E-02 -0.12950345E-01 -0.59640328E-02  0.12831650E-01
  0.60491142E-03 -0.74729383E-01 -0.69819927E-01  0.26307782E-01
  0.17833915E-01 -0.10292423E+00 -0.14374948E+00 -0.44204816E-02
  0.32788616E-01 -0.15078788E-01  0.62297024E-01 -0.27057176E-01
 -0.22026936E-01  0.26395351E-01  0.16220760E+00 -0.12398392E+00
 -0.14915660E-01  0.10779776E-01 -0.22808818E-01 -0.15335507E-01
  0.21026684E-02  0.44900663E-02 -0.13017195E-02  0.27200764E-02
  0.10563130E-02  0.33134330E-01  0.16995130E-01 -0.15292641E-01
  0.24188112E-02 -0.86551383E-02 -0.19452726E-02 -0.34849253E-02
  0.35679101E-02  0.10176242E-01 -0.22009404E-01  0.29706351E-01
  0.43338247E-01  0.19471707E-01  0.19346904E-03 -0.33331003E-01
 -0.12334582E-01 -0.12015220E-01  0.14972218E-02  0.39651532E-01
  0.19308904E-01  0.14977315E-02 -0.34002740E-01  0.13617952E-02
  0.26084945E-01  0.37475582E-02 -0.10403190E-01 -0.17990539E-01
 -0.22997431E-01  0.27994957E-01  0.22576403E-03 -0.16536335E-01
 -0.75725862E-03  0.69075967E-02 -0.14428189E-02  0.61770570E-02
  0.60216250E-03 -0.43525919E-03 -0.13888463E-02  0.90428479E-02
  0.19430213E-01 -0.10300137E-01  0.35099408E-02 -0.42426996E-02
  0.60566175E-02  0.52108951E-02 -0.11467599E-03  0.65590143E-02
  0.49651749E-02  0.11645566E-01  0.83609410E-02  0.52899159E-02
 -0.47522224E-02  0.55126846E-02  0.35592569E-02  0.34613644E-02
  0.36597401E-02  0.45108609E-02  0.48094876E-02 -0.14215786E-01
  0.53761150E-02  0.45948811E-02  0.83546602E-03  0.53303540E-02
 -0.26749300E-02  0.29056252E-02
